-0.598652 0.031009 0.077151 
-0.598652 0.032046 0.076721 
-0.598652 0.035393 0.075335 
-0.598652 0.042087 0.072562 
-0.598652 0.049817 0.06663 
-0.598652 0.050708 0.065947 
-0.598652 0.053582 0.063741 
-0.598652 0.05933 0.059331 
-0.598652 0.065262 0.0516 
-0.598652 0.065946 0.050709 
-0.598652 0.068151 0.047835 
-0.598652 0.072561 0.042088 
-0.598652 0.07629 0.033085 
-0.598652 0.07672 0.032047 
-0.598652 0.078106 0.028701 
-0.598652 0.080879 0.022007 
-0.598652 0.082151 0.012346 
-0.598652 0.082297 0.011233 
-0.598652 0.08277 0.007641 
-0.598652 0.083716 0.000458 
-0.598652 0.082444 -0.009202 
-0.598652 0.082297 -0.010316 
-0.598652 0.081824 -0.013908 
-0.598652 0.080879 -0.021091 
-0.598652 0.07715 -0.030093 
-0.598652 0.07672 -0.031131 
-0.598652 0.075334 -0.034477 
-0.598652 0.072561 -0.041171 
-0.598652 0.066629 -0.048901 
-0.598652 0.065946 -0.049793 
-0.598652 0.06374 -0.052666 
-0.598652 0.05933 -0.058414 
-0.598652 0.051599 -0.064346 
-0.598652 0.050708 -0.06503 
-0.598652 0.047834 -0.067235 
-0.598652 0.042087 -0.071646 
-0.598652 0.033084 -0.075374 
-0.598652 0.032046 -0.075804 
-0.598652 0.0287 -0.077191 
-0.598652 0.022006 -0.079963 
-0.598652 0.012345 -0.081235 
-0.598652 0.011232 -0.081382 
-0.598652 0.00764 -0.081854 
-0.598652 0.000457 -0.0828 
-0.598652 -0.009203 -0.081528 
-0.598652 -0.010317 -0.081382 
-0.598652 -0.013909 -0.080909 
-0.598652 -0.021091 -0.079963 
-0.598652 -0.030094 -0.076234 
-0.598652 -0.031132 -0.075804 
-0.598652 -0.034478 -0.074418 
-0.598652 -0.041172 -0.071646 
-0.598652 -0.048902 -0.065714 
-0.598652 -0.049793 -0.06503 
-0.598652 -0.052667 -0.062825 
-0.598652 -0.058415 -0.058414 
-0.598652 -0.064347 -0.050684 
-0.598652 -0.065031 -0.049793 
-0.598652 -0.067236 -0.046919 
-0.598652 -0.071647 -0.041171 
-0.598652 -0.075375 -0.032168 
-0.598652 -0.075805 -0.031131 
-0.598652 -0.077192 -0.027784 
-0.598652 -0.079964 -0.021091 
-0.598652 -0.081236 -0.01143 
-0.598652 -0.081382 -0.010316 
-0.598652 -0.081855 -0.006725 
-0.598652 -0.082801 0.000458 
-0.598652 -0.081529 0.010119 
-0.598652 -0.081382 0.011233 
-0.598652 -0.08091 0.014824 
-0.598652 -0.079964 0.022007 
-0.598652 -0.076235 0.03101 
-0.598652 -0.075805 0.032047 
-0.598652 -0.074419 0.035394 
-0.598652 -0.071647 0.042088 
-0.598652 -0.065715 0.049818 
-0.598652 -0.065031 0.050709 
-0.598652 -0.062826 0.053583 
-0.598652 -0.058415 0.059331 
-0.598652 -0.050685 0.065263 
-0.598652 -0.049793 0.065947 
-0.598652 -0.04692 0.068152 
-0.598652 -0.041172 0.072562 
-0.598652 -0.032169 0.076291 
-0.598652 -0.031132 0.076721 
-0.598652 -0.027785 0.078107 
-0.598652 -0.021091 0.08088 
-0.598652 -0.011431 0.082152 
-0.598652 -0.010317 0.082298 
-0.598652 -0.006726 0.082771 
-0.598652 0.000457 0.083717 
-0.598652 0.010118 0.082445 
-0.598652 0.011232 0.082298 
-0.598652 0.014823 0.081825 
-0.598652 0.022006 0.08088 
-0.484567 0.03551 0.075286 
-0.484567 0.037066 0.074642 
-0.484567 0.042087 0.072562 
-0.484567 0.053682 0.063664 
-0.484567 0.055019 0.062639 
-0.484567 0.05933 0.059331 
-0.484567 0.068228 0.047735 
-0.484567 0.069253 0.046398 
-0.484567 0.072561 0.042088 
-0.484567 0.078155 0.028584 
-0.484567 0.078799 0.027027 
-0.484567 0.080879 0.022007 
-0.484567 0.082787 0.007516 
-0.484567 0.083006 0.005846 
-0.484567 0.083716 0.000458 
-0.484567 0.081808 -0.014033 
-0.484567 0.081588 -0.015703 
-0.484567 0.080879 -0.021091 
-0.484567 0.075285 -0.034594 
-0.484567 0.074641 -0.036151 
-0.484567 0.072561 -0.041171 
-0.484567 0.063663 -0.052767 
-0.484567 0.062638 -0.054103 
-0.484567 0.05933 -0.058414 
-0.484567 0.047734 -0.067312 
-0.484567 0.046397 -0.068338 
-0.484567 0.042087 -0.071646 
-0.484567 0.028583 -0.077239 
-0.484567 0.027026 -0.077884 
-0.484567 0.022006 -0.079963 
-0.484567 0.007515 -0.081871 
-0.484567 0.005845 -0.082091 
-0.484567 0.000457 -0.0828 
-0.484567 -0.014034 -0.080892 
-0.484567 -0.015704 -0.080672 
-0.484567 -0.021091 -0.079963 
-0.484567 -0.034595 -0.07437 
-0.484567 -0.036152 -0.073725 
-0.484567 -0.041172 -0.071646 
-0.484567 -0.052768 -0.062748 
-0.484567 -0.054104 -0.061722 
-0.484567 -0.058415 -0.058414 
-0.484567 -0.067313 -0.046818 
-0.484567 -0.068339 -0.045482 
-0.484567 -0.071647 -0.041171 
-0.484567 -0.07724 -0.027667 
-0.484567 -0.077885 -0.026111 
-0.484567 -0.079964 -0.021091 
-0.484567 -0.081872 -0.006599 
-0.484567 -0.082092 -0.004929 
-0.484567 -0.082801 0.000458 
-0.484567 -0.080893 0.01495 
-0.484567 -0.080673 0.01662 
-0.484567 -0.079964 0.022007 
-0.484567 -0.074371 0.035511 
-0.484567 -0.073726 0.037067 
-0.484567 -0.071647 0.042088 
-0.484567 -0.062749 0.053683 
-0.484567 -0.061723 0.05502 
-0.484567 -0.058415 0.059331 
-0.484567 -0.046819 0.068229 
-0.484567 -0.045483 0.069254 
-0.484567 -0.041172 0.072562 
-0.484567 -0.027668 0.078156 
-0.484567 -0.026112 0.0788 
-0.484567 -0.021091 0.08088 
-0.484567 -0.0066 0.082788 
-0.484567 -0.00493 0.083007 
-0.484567 0.000457 0.083717 
-0.484567 0.014949 0.081809 
-0.484567 0.016619 0.081589 
-0.484567 0.022006 0.08088 
-0.370482 0.040011 0.073422 
-0.370482 0.042087 0.072562 
-0.370482 0.057548 0.060698 
-0.370482 0.05933 0.059331 
-0.370482 0.071194 0.04387 
-0.370482 0.072561 0.042088 
-0.370482 0.080019 0.024083 
-0.370482 0.080879 0.022007 
-0.370482 0.083423 0.002686 
-0.370482 0.083716 0.000458 
-0.370482 0.081172 -0.018863 
-0.370482 0.080879 -0.021091 
-0.370482 0.073421 -0.039095 
-0.370482 0.072561 -0.041171 
-0.370482 0.060697 -0.056632 
-0.370482 0.05933 -0.058414 
-0.370482 0.043869 -0.070278 
-0.370482 0.042087 -0.071646 
-0.370482 0.024082 -0.079103 
-0.370482 0.022006 -0.079963 
-0.370482 0.002685 -0.082507 
-0.370482 0.000457 -0.0828 
-0.370482 -0.018864 -0.080256 
-0.370482 -0.021091 -0.079963 
-0.370482 -0.039096 -0.072505 
-0.370482 -0.041172 -0.071646 
-0.370482 -0.056633 -0.059782 
-0.370482 -0.058415 -0.058414 
-0.370482 -0.070279 -0.042953 
-0.370482 -0.071647 -0.041171 
-0.370482 -0.079104 -0.023166 
-0.370482 -0.079964 -0.021091 
-0.370482 -0.082508 -0.001769 
-0.370482 -0.082801 0.000458 
-0.370482 -0.080257 0.01978 
-0.370482 -0.079964 0.022007 
-0.370482 -0.072506 0.040012 
-0.370482 -0.071647 0.042088 
-0.370482 -0.059783 0.057549 
-0.370482 -0.058415 0.059331 
-0.370482 -0.042954 0.071195 
-0.370482 -0.041172 0.072562 
-0.370482 -0.023167 0.08002 
-0.370482 -0.021091 0.08088 
-0.370482 -0.00177 0.083423 
-0.370482 0.000457 0.083717 
-0.370482 0.019779 0.081173 
-0.370482 0.022006 0.08088 
-0.256397 0.05734 0.18207 
-0.256397 0.059729 0.18108 
-0.256397 0.066089 0.178446 
-0.256397 0.096053 0.166034 
-0.256397 0.102406 0.161159 
-0.256397 0.104458 0.159585 
-0.256397 0.109919 0.155394 
-0.256397 0.13565 0.135651 
-0.256397 0.140525 0.129297 
-0.256397 0.142099 0.127246 
-0.256397 0.14629 0.121784 
-0.256397 0.166033 0.096054 
-0.256397 0.169098 0.088655 
-0.256397 0.170088 0.086266 
-0.256397 0.172722 0.079906 
-0.256397 0.185133 0.049942 
-0.256397 0.186179 0.042003 
-0.256397 0.186516 0.039439 
-0.256397 0.187415 0.032613 
-0.256397 0.191648 0.000458 
-0.256397 0.190603 -0.007481 
-0.256397 0.190265 -0.010045 
-0.256397 0.189367 -0.01687 
-0.256397 0.185133 -0.049025 
-0.256397 0.182069 -0.056424 
-0.256397 0.181079 -0.058813 
-0.256397 0.178445 -0.065173 
-0.256397 0.166033 -0.095137 
-0.256397 0.161158 -0.10149 
-0.256397 0.159584 -0.103542 
-0.256397 0.155393 -0.109003 
-0.256397 0.13565 -0.134734 
-0.256397 0.129296 -0.139609 
-0.256397 0.127245 -0.141183 
-0.256397 0.121783 -0.145374 
-0.256397 0.096053 -0.165118 
-0.256397 0.088654 -0.168182 
-0.256397 0.086265 -0.169172 
-0.256397 0.079905 -0.171806 
-0.256397 0.049941 -0.184218 
-0.256397 0.042002 -0.185263 
-0.256397 0.039438 -0.1856 
-0.256397 0.032612 -0.186499 
-0.256397 0.000457 -0.190732 
-0.256397 -0.007482 -0.189687 
-0.256397 -0.010046 -0.189349 
-0.256397 -0.016871 -0.188451 
-0.256397 -0.049026 -0.184218 
-0.256397 -0.056425 -0.181153 
-0.256397 -0.058814 -0.180163 
-0.256397 -0.065174 -0.177529 
-0.256397 -0.095138 -0.165118 
-0.256397 -0.101491 -0.160243 
-0.256397 -0.103543 -0.158668 
-0.256397 -0.109004 -0.154477 
-0.256397 -0.134735 -0.134734 
-0.256397 -0.13961 -0.128381 
-0.256397 -0.141184 -0.126329 
-0.256397 -0.145375 -0.120867 
-0.256397 -0.165119 -0.095137 
-0.256397 -0.168183 -0.087738 
-0.256397 -0.169173 -0.085349 
-0.256397 -0.171807 -0.078989 
-0.256397 -0.184219 -0.049025 
-0.256397 -0.185264 -0.041086 
-0.256397 -0.185601 -0.038522 
-0.256397 -0.1865 -0.031697 
-0.256397 -0.190733 0.000458 
-0.256397 -0.189688 0.008398 
-0.256397 -0.18935 0.010962 
-0.256397 -0.188452 0.017787 
-0.256397 -0.184219 0.049942 
-0.256397 -0.181154 0.057341 
-0.256397 -0.180164 0.05973 
-0.256397 -0.17753 0.06609 
-0.256397 -0.165119 0.096054 
-0.256397 -0.160244 0.102407 
-0.256397 -0.158669 0.104458 
-0.256397 -0.154478 0.10992 
-0.256397 -0.134735 0.135651 
-0.256397 -0.132683 0.137225 
-0.256397 -0.127222 0.141416 
-0.256397 -0.101491 0.161159 
-0.256397 -0.095138 0.166034 
-0.256397 -0.087739 0.169099 
-0.256397 -0.08535 0.170088 
-0.256397 -0.07899 0.172723 
-0.256397 -0.049026 0.185134 
-0.256397 -0.046462 0.185472 
-0.256397 -0.039637 0.18637 
-0.256397 -0.007482 0.190604 
-0.256397 0.000457 0.191649 
-0.256397 0.008397 0.190604 
-0.256397 0.010961 0.190266 
-0.256397 0.017786 0.189368 
-0.256397 0.049941 0.185134 
-0.142312 0.071068 0.176383 
-0.142312 0.077891 0.173557 
-0.142312 0.096053 0.166034 
-0.142312 0.114195 0.152113 
-0.142312 0.120054 0.147618 
-0.142312 0.13565 0.135651 
-0.142312 0.14957 0.117508 
-0.142312 0.154066 0.11165 
-0.142312 0.166033 0.096054 
-0.142312 0.174784 0.074927 
-0.142312 0.17761 0.068104 
-0.142312 0.185133 0.049942 
-0.142312 0.188118 0.02727 
-0.142312 0.189082 0.019948 
-0.142312 0.191648 0.000458 
-0.142312 0.188663 -0.022214 
-0.142312 0.187699 -0.029535 
-0.142312 0.185133 -0.049025 
-0.142312 0.176382 -0.070152 
-0.142312 0.173556 -0.076975 
-0.142312 0.166033 -0.095137 
-0.142312 0.152112 -0.113279 
-0.142312 0.147617 -0.119138 
-0.142312 0.13565 -0.134734 
-0.142312 0.117507 -0.148655 
-0.142312 0.111649 -0.15315 
-0.142312 0.096053 -0.165118 
-0.142312 0.074926 -0.173869 
-0.142312 0.068103 -0.176695 
-0.142312 0.049941 -0.184218 
-0.142312 0.027269 -0.187202 
-0.142312 0.019948 -0.188166 
-0.142312 0.000457 -0.190732 
-0.142312 -0.022215 -0.187747 
-0.142312 -0.029536 -0.186784 
-0.142312 -0.049026 -0.184218 
-0.142312 -0.070153 -0.175467 
-0.142312 -0.076976 -0.17264 
-0.142312 -0.095138 -0.165118 
-0.142312 -0.11328 -0.151197 
-0.142312 -0.119139 -0.146701 
-0.142312 -0.134735 -0.134734 
-0.142312 -0.148656 -0.116592 
-0.142312 -0.153151 -0.110733 
-0.142312 -0.165119 -0.095137 
-0.142312 -0.17387 -0.07401 
-0.142312 -0.176696 -0.067187 
-0.142312 -0.184219 -0.049025 
-0.142312 -0.187203 -0.026354 
-0.142312 -0.188167 -0.019032 
-0.142312 -0.190733 0.000458 
-0.142312 -0.187748 0.02313 
-0.142312 -0.186784 0.030452 
-0.142312 -0.184219 0.049942 
-0.142312 -0.175468 0.071069 
-0.142312 -0.172641 0.077892 
-0.142312 -0.165119 0.096054 
-0.142312 -0.151198 0.114196 
-0.142312 -0.146702 0.120055 
-0.142312 -0.134735 0.135651 
-0.142312 -0.128876 0.140146 
-0.142312 -0.11328 0.152113 
-0.142312 -0.095138 0.166034 
-0.142312 -0.074011 0.174785 
-0.142312 -0.067188 0.177611 
-0.142312 -0.049026 0.185134 
-0.142312 -0.041705 0.186098 
-0.142312 -0.022215 0.188664 
-0.142312 0.000457 0.191649 
-0.142312 0.023129 0.188664 
-0.142312 0.030451 0.1877 
-0.142312 0.049941 0.185134 
-0.028226 0.084796 0.170697 
-0.028226 0.096053 0.166034 
-0.028226 0.125984 0.143067 
-0.028226 0.13565 0.135651 
-0.028226 0.158616 0.10572 
-0.028226 0.166033 0.096054 
-0.028226 0.180471 0.061198 
-0.028226 0.185133 0.049942 
-0.028226 0.190058 0.012538 
-0.028226 0.191648 0.000458 
-0.028226 0.186724 -0.036946 
-0.028226 0.185133 -0.049025 
-0.028226 0.170696 -0.083881 
-0.028226 0.166033 -0.095137 
-0.028226 0.143067 -0.125068 
-0.028226 0.13565 -0.134734 
-0.028226 0.105719 -0.157701 
-0.028226 0.096053 -0.165118 
-0.028226 0.061197 -0.179555 
-0.028226 0.049941 -0.184218 
-0.028226 0.012537 -0.189142 
-0.028226 0.000457 -0.190732 
-0.028226 -0.036947 -0.185808 
-0.028226 -0.049026 -0.184218 
-0.028226 -0.083882 -0.16978 
-0.028226 -0.095138 -0.165118 
-0.028226 -0.125069 -0.142151 
-0.028226 -0.134735 -0.134734 
-0.028226 -0.157702 -0.104803 
-0.028226 -0.165119 -0.095137 
-0.028226 -0.179556 -0.060282 
-0.028226 -0.184219 -0.049025 
-0.028226 -0.189143 -0.011621 
-0.028226 -0.190733 0.000458 
-0.028226 -0.185809 0.037863 
-0.028226 -0.184219 0.049942 
-0.028226 -0.169781 0.084797 
-0.028226 -0.165119 0.096054 
-0.028226 -0.142152 0.125985 
-0.028226 -0.134735 0.135651 
-0.028226 -0.125069 0.143067 
-0.028226 -0.095138 0.166034 
-0.028226 -0.060283 0.180472 
-0.028226 -0.049026 0.185134 
-0.028226 -0.036947 0.186725 
-0.028226 0.000457 0.191649 
-0.028226 0.037862 0.186725 
-0.028226 0.049941 0.185134 
0.085859 -0.021646 -0.079733 
0.085859 -0.021677 -0.079721 
0.085859 -0.02179 -0.079674 
0.085859 -0.021957 -0.079605 
0.085859 -0.022229 -0.079492 
0.085859 -0.02275 -0.079276 
0.085859 -0.024156 -0.078694 
0.085859 -0.041172 -0.071646 
0.085859 -0.041648 -0.07128 
0.085859 -0.041674 -0.07126 
0.085859 -0.041771 -0.071186 
0.085859 -0.041915 -0.071076 
0.085859 -0.042148 -0.070896 
0.085859 -0.042596 -0.070553 
0.085859 -0.043803 -0.069626 
0.085859 -0.058415 -0.058414 
0.085859 -0.05878 -0.057938 
0.085859 -0.058801 -0.057912 
0.085859 -0.058875 -0.057815 
0.085859 -0.058985 -0.057671 
0.085859 -0.059164 -0.057438 
0.085859 -0.059508 -0.05699 
0.085859 -0.060434 -0.055783 
0.085859 -0.071647 -0.041171 
0.085859 -0.071876 -0.040617 
0.085859 -0.071889 -0.040586 
0.085859 -0.071936 -0.040473 
0.085859 -0.072005 -0.040306 
0.085859 -0.072117 -0.040034 
0.085859 -0.072334 -0.039512 
0.085859 -0.072916 -0.038107 
0.085859 -0.079964 -0.021091 
0.085859 -0.080042 -0.020496 
0.085859 -0.080047 -0.020463 
0.085859 -0.080063 -0.020341 
0.085859 -0.080086 -0.020162 
0.085859 -0.080125 -0.01987 
0.085859 -0.080198 -0.019311 
0.085859 -0.080397 -0.017802 
0.085859 -0.082801 0.000458 
0.085859 -0.082723 0.001053 
0.085859 -0.082718 0.001086 
0.085859 -0.082702 0.001207 
0.085859 -0.082679 0.001387 
0.085859 -0.08264 0.001679 
0.085859 -0.082567 0.002238 
0.085859 -0.082368 0.003747 
0.085859 -0.079964 0.022007 
0.085859 -0.079734 0.022561 
0.085859 -0.079722 0.022592 
0.085859 -0.079675 0.022705 
0.085859 -0.079606 0.022872 
0.085859 -0.079493 0.023144 
0.085859 -0.079277 0.023666 
0.085859 -0.078695 0.025071 
0.085859 -0.071647 0.042088 
0.085859 -0.071281 0.042563 
0.085859 -0.071261 0.04259 
0.085859 -0.071187 0.042687 
0.085859 -0.071076 0.04283 
0.085859 -0.070897 0.043064 
0.085859 -0.070554 0.043512 
0.085859 -0.069627 0.044719 
0.085859 -0.058415 0.059331 
0.085859 -0.057939 0.059696 
0.085859 -0.057913 0.059716 
0.085859 -0.057816 0.059791 
0.085859 -0.057672 0.059901 
0.085859 -0.057439 0.06008 
0.085859 -0.056991 0.060424 
0.085859 -0.055784 0.06135 
0.085859 -0.041172 0.072562 
0.085859 -0.040618 0.072792 
0.085859 -0.040587 0.072805 
0.085859 -0.040474 0.072851 
0.085859 -0.040307 0.072921 
0.085859 -0.040035 0.073033 
0.085859 -0.039513 0.073249 
0.085859 -0.038108 0.073831 
0.085859 -0.021091 0.08088 
0.085859 -0.020497 0.080958 
0.085859 -0.020464 0.080962 
0.085859 -0.020342 0.080978 
0.085859 -0.020163 0.081002 
0.085859 -0.019871 0.08104 
0.085859 -0.019312 0.081114 
0.085859 -0.017803 0.081313 
0.085859 0.000457 0.083717 
0.085859 0.001052 0.083638 
0.085859 0.001085 0.083634 
0.085859 0.001206 0.083618 
0.085859 0.001386 0.083594 
0.085859 0.001678 0.083556 
0.085859 0.002237 0.083482 
0.085859 0.003746 0.083284 
0.085859 0.022006 0.08088 
0.085859 0.02256 0.08065 
0.085859 0.022591 0.080637 
0.085859 0.022704 0.080591 
0.085859 0.022871 0.080521 
0.085859 0.023143 0.080409 
0.085859 0.023665 0.080193 
0.085859 0.02507 0.07961 
0.085859 0.042087 0.072562 
0.085859 0.042562 0.072197 
0.085859 0.042589 0.072177 
0.085859 0.042686 0.072102 
0.085859 0.042829 0.071992 
0.085859 0.043063 0.071813 
0.085859 0.043511 0.071469 
0.085859 0.044718 0.070543 
0.085859 0.05933 0.059331 
0.085859 0.059695 0.058855 
0.085859 0.059715 0.058828 
0.085859 0.05979 0.058731 
0.085859 0.0599 0.058588 
0.085859 0.060079 0.058354 
0.085859 0.060423 0.057907 
0.085859 0.061349 0.0567 
0.085859 0.072561 0.042088 
0.085859 0.072791 0.041533 
0.085859 0.072804 0.041502 
0.085859 0.07285 0.041389 
0.085859 0.07292 0.041222 
0.085859 0.073032 0.04095 
0.085859 0.073248 0.040429 
0.085859 0.07383 0.039023 
0.085859 0.080879 0.022007 
0.085859 0.080957 0.021412 
0.085859 0.080961 0.021379 
0.085859 0.080977 0.021258 
0.085859 0.081001 0.021079 
0.085859 0.081039 0.020787 
0.085859 0.081113 0.020227 
0.085859 0.081312 0.018719 
0.085859 0.083716 0.000458 
0.085859 0.083637 -0.000136 
0.085859 0.083633 -0.00017 
0.085859 0.083617 -0.000291 
0.085859 0.083594 -0.00047 
0.085859 0.083555 -0.000762 
0.085859 0.083481 -0.001322 
0.085859 0.083283 -0.00283 
0.085859 0.080879 -0.021091 
0.085859 0.080649 -0.021645 
0.085859 0.080636 -0.021676 
0.085859 0.08059 -0.021789 
0.085859 0.08052 -0.021956 
0.085859 0.080408 -0.022228 
0.085859 0.080192 -0.022749 
0.085859 0.07961 -0.024155 
0.085859 0.072561 -0.041171 
0.085859 0.072196 -0.041647 
0.085859 0.072176 -0.041673 
0.085859 0.072101 -0.04177 
0.085859 0.071991 -0.041914 
0.085859 0.071812 -0.042147 
0.085859 0.071468 -0.042595 
0.085859 0.070542 -0.043802 
0.085859 0.05933 -0.058414 
0.085859 0.058854 -0.058779 
0.085859 0.058827 -0.0588 
0.085859 0.05873 -0.058874 
0.085859 0.058587 -0.058984 
0.085859 0.058353 -0.059163 
0.085859 0.057906 -0.059507 
0.085859 0.056699 -0.060433 
0.085859 0.042087 -0.071646 
0.085859 0.041532 -0.071875 
0.085859 0.041501 -0.071888 
0.085859 0.041388 -0.071935 
0.085859 0.041221 -0.072004 
0.085859 0.040949 -0.072117 
0.085859 0.040428 -0.072333 
0.085859 0.039022 -0.072915 
0.085859 0.022006 -0.079963 
0.085859 0.021412 -0.080041 
0.085859 0.021378 -0.080046 
0.085859 0.021257 -0.080062 
0.085859 0.021078 -0.080085 
0.085859 0.020786 -0.080124 
0.085859 0.020226 -0.080197 
0.085859 0.018718 -0.080396 
0.085859 0.000457 -0.0828 
0.085859 -0.000137 -0.082722 
0.085859 -0.000171 -0.082717 
0.085859 -0.000292 -0.082701 
0.085859 -0.000471 -0.082678 
0.085859 -0.000763 -0.082639 
0.085859 -0.001323 -0.082566 
0.085859 -0.002831 -0.082367 
0.085859 -0.021091 -0.079963 
0.199944 -0.024723 -0.078459 
0.199944 -0.024926 -0.078375 
0.199944 -0.025666 -0.078068 
0.199944 -0.02676 -0.077615 
0.199944 -0.028543 -0.076877 
0.199944 -0.031961 -0.075461 
0.199944 -0.041172 -0.071646 
0.199944 -0.04429 -0.069253 
0.199944 -0.044464 -0.069119 
0.199944 -0.0451 -0.068631 
0.199944 -0.04604 -0.06791 
0.199944 -0.047571 -0.066736 
0.199944 -0.050506 -0.064483 
0.199944 -0.058415 -0.058414 
0.199944 -0.060808 -0.055296 
0.199944 -0.060942 -0.055122 
0.199944 -0.061429 -0.054486 
0.199944 -0.06215 -0.053546 
0.199944 -0.063325 -0.052015 
0.199944 -0.065577 -0.04908 
0.199944 -0.071647 -0.041171 
0.199944 -0.073151 -0.037539 
0.199944 -0.073235 -0.037337 
0.199944 -0.073541 -0.036596 
0.199944 -0.073995 -0.035502 
0.199944 -0.074733 -0.033719 
0.199944 -0.076149 -0.030301 
0.199944 -0.079964 -0.021091 
0.199944 -0.080477 -0.017193 
0.199944 -0.080506 -0.016976 
0.199944 -0.08061 -0.016181 
0.199944 -0.080765 -0.015007 
0.199944 -0.081017 -0.013094 
0.199944 -0.0815 -0.009426 
0.199944 -0.082801 0.000458 
0.199944 -0.082288 0.004355 
0.199944 -0.082259 0.004573 
0.199944 -0.082155 0.005367 
0.199944 -0.082 0.006542 
0.199944 -0.081748 0.008455 
0.199944 -0.081265 0.012123 
0.199944 -0.079964 0.022007 
0.199944 -0.07846 0.025639 
0.199944 -0.078376 0.025842 
0.199944 -0.078069 0.026582 
0.199944 -0.077616 0.027676 
0.199944 -0.076878 0.029459 
0.199944 -0.075462 0.032877 
0.199944 -0.071647 0.042088 
0.199944 -0.069254 0.045206 
0.199944 -0.06912 0.04538 
0.199944 -0.068632 0.046016 
0.199944 -0.067911 0.046955 
0.199944 -0.066737 0.048486 
0.199944 -0.064484 0.051421 
0.199944 -0.058415 0.059331 
0.199944 -0.055297 0.061724 
0.199944 -0.055123 0.061857 
0.199944 -0.054487 0.062345 
0.199944 -0.053547 0.063066 
0.199944 -0.052016 0.064241 
0.199944 -0.049081 0.066493 
0.199944 -0.041172 0.072562 
0.199944 -0.03754 0.074066 
0.199944 -0.037337 0.07415 
0.199944 -0.036597 0.074457 
0.199944 -0.035503 0.07491 
0.199944 -0.03372 0.075649 
0.199944 -0.030302 0.077064 
0.199944 -0.021091 0.08088 
0.199944 -0.017194 0.081393 
0.199944 -0.016977 0.081421 
0.199944 -0.016182 0.081526 
0.199944 -0.015008 0.081681 
0.199944 -0.013095 0.081932 
0.199944 -0.009427 0.082415 
0.199944 0.000457 0.083717 
0.199944 0.004354 0.083204 
0.199944 0.004572 0.083175 
0.199944 0.005366 0.08307 
0.199944 0.006541 0.082916 
0.199944 0.008454 0.082664 
0.199944 0.012122 0.082181 
0.199944 0.022006 0.08088 
0.199944 0.025638 0.079375 
0.199944 0.025841 0.079291 
0.199944 0.026581 0.078985 
0.199944 0.027675 0.078532 
0.199944 0.029458 0.077793 
0.199944 0.032876 0.076377 
0.199944 0.042087 0.072562 
0.199944 0.045205 0.070169 
0.199944 0.045379 0.070036 
0.199944 0.046015 0.069548 
0.199944 0.046955 0.068827 
0.199944 0.048485 0.067652 
0.199944 0.05142 0.0654 
0.199944 0.05933 0.059331 
0.199944 0.061723 0.056212 
0.199944 0.061856 0.056038 
0.199944 0.062344 0.055403 
0.199944 0.063065 0.054463 
0.199944 0.06424 0.052932 
0.199944 0.066492 0.049997 
0.199944 0.072561 0.042088 
0.199944 0.074065 0.038456 
0.199944 0.074149 0.038253 
0.199944 0.074456 0.037513 
0.199944 0.074909 0.036419 
0.199944 0.075648 0.034636 
0.199944 0.077064 0.031218 
0.199944 0.080879 0.022007 
0.199944 0.081392 0.01811 
0.199944 0.08142 0.017892 
0.199944 0.081525 0.017098 
0.199944 0.08168 0.015924 
0.199944 0.081932 0.014011 
0.199944 0.082414 0.010343 
0.199944 0.083716 0.000458 
0.199944 0.083203 -0.003439 
0.199944 0.083174 -0.003656 
0.199944 0.083069 -0.004451 
0.199944 0.082915 -0.005625 
0.199944 0.082663 -0.007538 
0.199944 0.08218 -0.011206 
0.199944 0.080879 -0.021091 
0.199944 0.079375 -0.024722 
0.199944 0.079291 -0.024925 
0.199944 0.078984 -0.025665 
0.199944 0.078531 -0.026759 
0.199944 0.077792 -0.028542 
0.199944 0.076376 -0.03196 
0.199944 0.072561 -0.041171 
0.199944 0.070168 -0.044289 
0.199944 0.070035 -0.044463 
0.199944 0.069547 -0.045099 
0.199944 0.068826 -0.046039 
0.199944 0.067651 -0.04757 
0.199944 0.065399 -0.050505 
0.199944 0.05933 -0.058414 
0.199944 0.056211 -0.060807 
0.199944 0.056037 -0.060941 
0.199944 0.055402 -0.061428 
0.199944 0.054462 -0.06215 
0.199944 0.052931 -0.063324 
0.199944 0.049996 -0.065576 
0.199944 0.042087 -0.071646 
0.199944 0.038455 -0.07315 
0.199944 0.038252 -0.073234 
0.199944 0.037512 -0.07354 
0.199944 0.036418 -0.073994 
0.199944 0.034635 -0.074732 
0.199944 0.031217 -0.076148 
0.199944 0.022006 -0.079963 
0.199944 0.018109 -0.080476 
0.199944 0.017892 -0.080505 
0.199944 0.017097 -0.080609 
0.199944 0.015923 -0.080764 
0.199944 0.01401 -0.081016 
0.199944 0.010342 -0.081499 
0.199944 0.000457 -0.0828 
0.199944 -0.00344 -0.082287 
0.199944 -0.003657 -0.082258 
0.199944 -0.004452 -0.082154 
0.199944 -0.005626 -0.081999 
0.199944 -0.007539 -0.081747 
0.199944 -0.011207 -0.081264 
0.199944 -0.021091 -0.079963 
0.314029 -0.0278 -0.077184 
0.314029 -0.028175 -0.077029 
0.314029 -0.029542 -0.076463 
0.314029 -0.031564 -0.075625 
0.314029 -0.034857 -0.074261 
0.314029 -0.041172 -0.071646 
0.314029 -0.046933 -0.067225 
0.314029 -0.047255 -0.066978 
0.314029 -0.048429 -0.066077 
0.314029 -0.050165 -0.064745 
0.314029 -0.052993 -0.062575 
0.314029 -0.058415 -0.058414 
0.314029 -0.062836 -0.052653 
0.314029 -0.063083 -0.052331 
0.314029 -0.063984 -0.051157 
0.314029 -0.065316 -0.049421 
0.314029 -0.067486 -0.046593 
0.314029 -0.071647 -0.041171 
0.314029 -0.074425 -0.034462 
0.314029 -0.074581 -0.034087 
0.314029 -0.075147 -0.03272 
0.314029 -0.075984 -0.030698 
0.314029 -0.077349 -0.027405 
0.314029 -0.079964 -0.021091 
0.314029 -0.080912 -0.013891 
0.314029 -0.080965 -0.013489 
0.314029 -0.081158 -0.012022 
0.314029 -0.081444 -0.009852 
0.314029 -0.081909 -0.006318 
0.314029 -0.082801 0.000458 
0.314029 -0.081853 0.007658 
0.314029 -0.0818 0.00806 
0.314029 -0.081607 0.009527 
0.314029 -0.081321 0.011697 
0.314029 -0.080856 0.015231 
0.314029 -0.079964 0.022007 
0.314029 -0.077185 0.028716 
0.314029 -0.07703 0.029091 
0.314029 -0.076464 0.030458 
0.314029 -0.075626 0.03248 
0.314029 -0.074262 0.035773 
0.314029 -0.071647 0.042088 
0.314029 -0.067226 0.047849 
0.314029 -0.066979 0.04817 
0.314029 -0.066078 0.049345 
0.314029 -0.064746 0.051081 
0.314029 -0.062576 0.053909 
0.314029 -0.058415 0.059331 
0.314029 -0.052654 0.063751 
0.314029 -0.052332 0.063998 
0.314029 -0.051158 0.064899 
0.314029 -0.049422 0.066232 
0.314029 -0.046594 0.068402 
0.314029 -0.041172 0.072562 
0.314029 -0.034463 0.075341 
0.314029 -0.034088 0.075496 
0.314029 -0.032721 0.076063 
0.314029 -0.030699 0.0769 
0.314029 -0.027406 0.078264 
0.314029 -0.021091 0.08088 
0.314029 -0.013892 0.081828 
0.314029 -0.01349 0.08188 
0.314029 -0.012022 0.082074 
0.314029 -0.009853 0.082359 
0.314029 -0.006319 0.082825 
0.314029 0.000457 0.083717 
0.314029 0.007657 0.082769 
0.314029 0.008059 0.082716 
0.314029 0.009526 0.082523 
0.314029 0.011696 0.082237 
0.314029 0.01523 0.081772 
0.314029 0.022006 0.08088 
0.314029 0.028715 0.078101 
0.314029 0.02909 0.077946 
0.314029 0.030457 0.077379 
0.314029 0.032479 0.076542 
0.314029 0.035772 0.075178 
0.314029 0.042087 0.072562 
0.314029 0.047848 0.068142 
0.314029 0.048169 0.067895 
0.314029 0.049344 0.066994 
0.314029 0.05108 0.065662 
0.314029 0.053908 0.063492 
0.314029 0.05933 0.059331 
0.314029 0.063751 0.05357 
0.314029 0.063997 0.053248 
0.314029 0.064898 0.052074 
0.314029 0.066231 0.050338 
0.314029 0.068401 0.04751 
0.314029 0.072561 0.042088 
0.314029 0.07534 0.035379 
0.314029 0.075495 0.035004 
0.314029 0.076062 0.033637 
0.314029 0.076899 0.031615 
0.314029 0.078263 0.028322 
0.314029 0.080879 0.022007 
0.314029 0.081827 0.014808 
0.314029 0.08188 0.014406 
0.314029 0.082073 0.012938 
0.314029 0.082358 0.010769 
0.314029 0.082824 0.007235 
0.314029 0.083716 0.000458 
0.314029 0.082768 -0.006741 
0.314029 0.082715 -0.007143 
0.314029 0.082522 -0.008611 
0.314029 0.082236 -0.01078 
0.314029 0.081771 -0.014314 
0.314029 0.080879 -0.021091 
0.314029 0.0781 -0.027799 
0.314029 0.077945 -0.028174 
0.314029 0.077378 -0.029541 
0.314029 0.076541 -0.031563 
0.314029 0.075177 -0.034856 
0.314029 0.072561 -0.041171 
0.314029 0.068141 -0.046932 
0.314029 0.067894 -0.047254 
0.314029 0.066993 -0.048428 
0.314029 0.065661 -0.050164 
0.314029 0.063491 -0.052992 
0.314029 0.05933 -0.058414 
0.314029 0.053569 -0.062835 
0.314029 0.053247 -0.063082 
0.314029 0.052073 -0.063983 
0.314029 0.050337 -0.065315 
0.314029 0.047509 -0.067485 
0.314029 0.042087 -0.071646 
0.314029 0.035378 -0.074424 
0.314029 0.035003 -0.07458 
0.314029 0.033636 -0.075146 
0.314029 0.031614 -0.075983 
0.314029 0.028321 -0.077348 
0.314029 0.022006 -0.079963 
0.314029 0.014807 -0.080911 
0.314029 0.014405 -0.080964 
0.314029 0.012937 -0.081157 
0.314029 0.010768 -0.081443 
0.314029 0.007234 -0.081908 
0.314029 0.000457 -0.0828 
0.314029 -0.006742 -0.081852 
0.314029 -0.007144 -0.081799 
0.314029 -0.008612 -0.081606 
0.314029 -0.010781 -0.08132 
0.314029 -0.014315 -0.080855 
0.314029 -0.021091 -0.079963 
0.428115 -0.030878 -0.075909 
0.428115 -0.031424 -0.075683 
0.428115 -0.033419 -0.074857 
0.428115 -0.036368 -0.073635 
0.428115 -0.041172 -0.071646 
0.428115 -0.049575 -0.065197 
0.428115 -0.050045 -0.064837 
0.428115 -0.051758 -0.063523 
0.428115 -0.05429 -0.06158 
0.428115 -0.058415 -0.058414 
0.428115 -0.064864 -0.050011 
0.428115 -0.065224 -0.049541 
0.428115 -0.066538 -0.047828 
0.428115 -0.068481 -0.045296 
0.428115 -0.071647 -0.041171 
0.428115 -0.0757 -0.031385 
0.428115 -0.075926 -0.030838 
0.428115 -0.076753 -0.028843 
0.428115 -0.077974 -0.025894 
0.428115 -0.079964 -0.021091 
0.428115 -0.081347 -0.010589 
0.428115 -0.081424 -0.010002 
0.428115 -0.081706 -0.007862 
0.428115 -0.082122 -0.004697 
0.428115 -0.082801 0.000458 
0.428115 -0.081418 0.01096 
0.428115 -0.081341 0.011547 
0.428115 -0.081059 0.013687 
0.428115 -0.080643 0.016852 
0.428115 -0.079964 0.022007 
0.428115 -0.07591 0.031793 
0.428115 -0.075684 0.03234 
0.428115 -0.074858 0.034335 
0.428115 -0.073636 0.037284 
0.428115 -0.071647 0.042088 
0.428115 -0.065198 0.050491 
0.428115 -0.064838 0.05096 
0.428115 -0.063524 0.052673 
0.428115 -0.06158 0.055206 
0.428115 -0.058415 0.059331 
0.428114 -0.050011 0.065779 
0.428114 -0.049542 0.066139 
0.428114 -0.047829 0.067454 
0.428114 -0.045297 0.069397 
0.428114 -0.041172 0.072562 
0.428114 -0.031386 0.076616 
0.428114 -0.030839 0.076842 
0.428114 -0.028844 0.077668 
0.428114 -0.025895 0.07889 
0.428114 -0.021091 0.08088 
0.428114 -0.01059 0.082262 
0.428114 -0.010003 0.08234 
0.428114 -0.007863 0.082621 
0.428114 -0.004698 0.083038 
0.428114 0.000457 0.083717 
0.428114 0.010959 0.082334 
0.428114 0.011546 0.082257 
0.428114 0.013686 0.081975 
0.428114 0.016851 0.081558 
0.428114 0.022006 0.08088 
0.428114 0.031793 0.076826 
0.428114 0.032339 0.0766 
0.428114 0.034334 0.075774 
0.428114 0.037283 0.074552 
0.428114 0.042087 0.072562 
0.428114 0.05049 0.066114 
0.428114 0.050959 0.065754 
0.428115 0.052672 0.064439 
0.428115 0.055205 0.062496 
0.428115 0.05933 0.059331 
0.428115 0.065778 0.050927 
0.428115 0.066138 0.050458 
0.428115 0.067453 0.048745 
0.428115 0.069396 0.046213 
0.428115 0.072561 0.042088 
0.428115 0.076615 0.032301 
0.428115 0.076841 0.031755 
0.428115 0.077667 0.02976 
0.428115 0.078889 0.026811 
0.428115 0.080879 0.022007 
0.428115 0.082261 0.011505 
0.428115 0.082339 0.010919 
0.428115 0.08262 0.008778 
0.428115 0.083037 0.005613 
0.428115 0.083716 0.000458 
0.428115 0.082333 -0.010044 
0.428115 0.082256 -0.01063 
0.428115 0.081974 -0.012771 
0.428115 0.081557 -0.015935 
0.428115 0.080879 -0.021091 
0.428115 0.076825 -0.030877 
0.428115 0.076599 -0.031423 
0.428115 0.075773 -0.033418 
0.428115 0.074551 -0.036367 
0.428115 0.072561 -0.041171 
0.428115 0.066113 -0.049574 
0.428115 0.065753 -0.050044 
0.428115 0.064438 -0.051757 
0.428115 0.062495 -0.054289 
0.428115 0.05933 -0.058414 
0.428115 0.050926 -0.064863 
0.428115 0.050457 -0.065223 
0.428115 0.048744 -0.066537 
0.428115 0.046212 -0.06848 
0.428115 0.042087 -0.071646 
0.428115 0.0323 -0.075699 
0.428115 0.031754 -0.075925 
0.428115 0.029759 -0.076752 
0.428115 0.02681 -0.077973 
0.428115 0.022006 -0.079963 
0.428115 0.011504 -0.081346 
0.428115 0.010918 -0.081423 
0.428115 0.008777 -0.081705 
0.428115 0.005613 -0.082121 
0.428115 0.000457 -0.0828 
0.428115 -0.010045 -0.081417 
0.428115 -0.010631 -0.08134 
0.428115 -0.012772 -0.081058 
0.428115 -0.015936 -0.080642 
0.428115 -0.021091 -0.079963 
0.5422 -0.033955 -0.074635 
0.5422 -0.034673 -0.074337 
0.5422 -0.037295 -0.073251 
0.5422 -0.041172 -0.071646 
0.5422 -0.052218 -0.063169 
0.5422 -0.052835 -0.062696 
0.5422 -0.055086 -0.060968 
0.5422 -0.058415 -0.058414 
0.5422 -0.066891 -0.047368 
0.5422 -0.067365 -0.046751 
0.5422 -0.069092 -0.0445 
0.5422 -0.071647 -0.041171 
0.5422 -0.076975 -0.028307 
0.5422 -0.077272 -0.027589 
0.5422 -0.078358 -0.024967 
0.5422 -0.079964 -0.021091 
0.5422 -0.081781 -0.007286 
0.5422 -0.081883 -0.006515 
0.5422 -0.082253 -0.003702 
0.5422 -0.082801 0.000458 
0.5422 -0.080984 0.014263 
0.5422 -0.080882 0.015034 
0.5422 -0.080512 0.017847 
0.5422 -0.079964 0.022007 
0.5422 -0.074636 0.034871 
0.5422 -0.074338 0.035589 
0.5422 -0.073252 0.038211 
0.5422 -0.071647 0.042088 
0.5422 -0.06317 0.053134 
0.5422 -0.062697 0.053751 
0.5422 -0.060969 0.056002 
0.5422 -0.058415 0.059331 
0.5422 -0.047369 0.067807 
0.5422 -0.046752 0.06828 
0.5422 -0.044501 0.070008 
0.5422 -0.041172 0.072562 
0.5422 -0.028308 0.07789 
0.5422 -0.02759 0.078188 
0.5422 -0.024968 0.079274 
0.5422 -0.021091 0.08088 
0.5422 -0.007287 0.082697 
0.5422 -0.006516 0.082799 
0.5422 -0.003703 0.083169 
0.5422 0.000457 0.083717 
0.5422 0.014262 0.081899 
0.5422 0.015033 0.081798 
0.5422 0.017846 0.081427 
0.5422 0.022006 0.08088 
0.5422 0.03487 0.075551 
0.5422 0.035588 0.075254 
0.5422 0.03821 0.074168 
0.5422 0.042087 0.072562 
0.5422 0.053133 0.064086 
0.5422 0.05375 0.063613 
0.5422 0.056001 0.061885 
0.5422 0.05933 0.059331 
0.5422 0.067806 0.048285 
0.5422 0.068279 0.047668 
0.5422 0.070007 0.045416 
0.5422 0.072561 0.042088 
0.5422 0.07789 0.029224 
0.5422 0.078187 0.028506 
0.5422 0.079273 0.025884 
0.5422 0.080879 0.022007 
0.5422 0.082696 0.008203 
0.5422 0.082798 0.007432 
0.5422 0.083168 0.004618 
0.5422 0.083716 0.000458 
0.5422 0.081898 -0.013346 
0.5422 0.081797 -0.014117 
0.5422 0.081426 -0.016931 
0.5422 0.080879 -0.021091 
0.5422 0.07555 -0.033954 
0.5422 0.075253 -0.034672 
0.5422 0.074167 -0.037294 
0.5422 0.072561 -0.041171 
0.5422 0.064085 -0.052217 
0.5422 0.063612 -0.052834 
0.5422 0.061884 -0.055085 
0.5422 0.05933 -0.058414 
0.5422 0.048284 -0.06689 
0.5422 0.047667 -0.067364 
0.5422 0.045415 -0.069091 
0.5422 0.042087 -0.071646 
0.5422 0.029223 -0.076974 
0.5422 0.028505 -0.077271 
0.5422 0.025883 -0.078357 
0.5422 0.022006 -0.079963 
0.5422 0.008202 -0.08178 
0.5422 0.007431 -0.081882 
0.5422 0.004617 -0.082252 
0.5422 0.000457 -0.0828 
0.5422 -0.013347 -0.080983 
0.5422 -0.014118 -0.080881 
0.5422 -0.016932 -0.080511 
0.5422 -0.021091 -0.079963 
0.656285 -0.037032 -0.07336 
0.656285 -0.037923 -0.072991 
0.656285 -0.041172 -0.071646 
0.656285 -0.054861 -0.061142 
0.656285 -0.055625 -0.060555 
0.656285 -0.058415 -0.058414 
0.656285 -0.068919 -0.044725 
0.656285 -0.069506 -0.043961 
0.656285 -0.071647 -0.041171 
0.656285 -0.078249 -0.02523 
0.656285 -0.078618 -0.02434 
0.656285 -0.079964 -0.021091 
0.656285 -0.082216 -0.003984 
0.656285 -0.082342 -0.003028 
0.656285 -0.082801 0.000458 
0.656285 -0.080549 0.017565 
0.656285 -0.080423 0.01852 
0.656285 -0.079964 0.022007 
0.656285 -0.073361 0.037948 
0.656285 -0.072992 0.038838 
0.656285 -0.071647 0.042088 
0.656285 -0.061143 0.055776 
0.656285 -0.060556 0.056541 
0.656285 -0.058415 0.059331 
0.656285 -0.044726 0.069835 
0.656285 -0.043962 0.070421 
0.656285 -0.041172 0.072562 
0.656285 -0.025231 0.079165 
0.656285 -0.024341 0.079534 
0.656285 -0.021091 0.08088 
0.656285 -0.003985 0.083132 
0.656285 -0.003029 0.083258 
0.656285 0.000457 0.083717 
0.656285 0.017564 0.081465 
0.656285 0.018519 0.081339 
0.656285 0.022006 0.08088 
0.656285 0.037947 0.074277 
0.656285 0.038837 0.073908 
0.656285 0.042087 0.072562 
0.656285 0.055775 0.062058 
0.656285 0.05654 0.061472 
0.656285 0.05933 0.059331 
0.656285 0.069834 0.045642 
0.656285 0.07042 0.044878 
0.656285 0.072561 0.042088 
0.656285 0.079164 0.026147 
0.656285 0.079533 0.025256 
0.656285 0.080879 0.022007 
0.656285 0.083131 0.0049 
0.656285 0.083257 0.003945 
0.656285 0.083716 0.000458 
0.656285 0.081464 -0.016648 
0.656285 0.081338 -0.017604 
0.656285 0.080879 -0.021091 
0.656285 0.074276 -0.037032 
0.656285 0.073907 -0.037922 
0.656285 0.072561 -0.041171 
0.656285 0.062057 -0.05486 
0.656285 0.061471 -0.055624 
0.656285 0.05933 -0.058414 
0.656285 0.045641 -0.068918 
0.656285 0.044877 -0.069505 
0.656285 0.042087 -0.071646 
0.656285 0.026146 -0.078248 
0.656285 0.025255 -0.078617 
0.656285 0.022006 -0.079963 
0.656285 0.004899 -0.082215 
0.656285 0.003944 -0.082341 
0.656285 0.000457 -0.0828 
0.656285 -0.016649 -0.080548 
0.656285 -0.017605 -0.080422 
0.656285 -0.021091 -0.079963 
0.77037 -0.04011 -0.072085 
0.77037 -0.041172 -0.071646 
0.77037 -0.057503 -0.059114 
0.77037 -0.058415 -0.058414 
0.77037 -0.070947 -0.042083 
0.77037 -0.071647 -0.041171 
0.77037 -0.079524 -0.022152 
0.77037 -0.079964 -0.021091 
0.77037 -0.082651 -0.000681 
0.77037 -0.082801 0.000458 
0.77037 -0.080114 0.020868 
0.77037 -0.079964 0.022007 
0.77037 -0.072086 0.041026 
0.77037 -0.071647 0.042088 
0.77037 -0.059115 0.058419 
0.77037 -0.058415 0.059331 
0.77037 -0.042084 0.071862 
0.77037 -0.041172 0.072562 
0.77037 -0.022153 0.08044 
0.77037 -0.021091 0.08088 
0.77037 -0.000682 0.083567 
0.77037 0.000457 0.083717 
0.77037 0.020867 0.08103 
0.77037 0.022006 0.08088 
0.77037 0.041025 0.073002 
0.77037 0.042087 0.072562 
0.77037 0.058418 0.060031 
0.77037 0.05933 0.059331 
0.77037 0.071862 0.042999 
0.77037 0.072561 0.042088 
0.77037 0.080439 0.023069 
0.77037 0.080879 0.022007 
0.77037 0.083566 0.001598 
0.77037 0.083716 0.000458 
0.77037 0.081029 -0.019951 
0.77037 0.080879 -0.021091 
0.77037 0.073001 -0.040109 
0.77037 0.072561 -0.041171 
0.77037 0.06003 -0.057502 
0.77037 0.05933 -0.058414 
0.77037 0.042998 -0.070946 
0.77037 0.042087 -0.071646 
0.77037 0.023068 -0.079523 
0.77037 0.022006 -0.079963 
0.77037 0.001597 -0.08265 
0.77037 0.000457 -0.0828 
0.77037 -0.019952 -0.080113 
0.77037 -0.021091 -0.079963 
0.884455 -0.02113 0.048779 
0.884455 -0.026223 0.046669 
0.884455 -0.0329 0.041545 
0.884455 -0.037274 0.038189 
0.884455 -0.042398 0.031512 
0.884455 -0.045754 0.027138 
0.884455 -0.048975 0.019362 
0.884455 -0.051084 0.014269 
0.884455 -0.052183 0.005924 
0.884455 -0.052902 0.000458 
0.884455 -0.051804 -0.007887 
0.884455 -0.051084 -0.013352 
0.884455 -0.047863 -0.021129 
0.884455 -0.045754 -0.026222 
0.884455 -0.04063 -0.032899 
0.884455 -0.037274 -0.037273 
0.884455 -0.0329 -0.040629 
0.884455 -0.026223 -0.045753 
0.884455 -0.02113 -0.047862 
0.884455 -0.013353 -0.051083 
0.884455 -0.007888 -0.051803 
0.884455 0.000457 -0.052901 
0.884455 0.005923 -0.052182 
0.884455 0.014268 -0.051083 
0.884455 0.019361 -0.048974 
0.884455 0.027137 -0.045753 
0.884455 0.031511 -0.042397 
0.884455 0.038188 -0.037273 
0.884455 0.041544 -0.032899 
0.884455 0.046668 -0.026222 
0.884455 0.048778 -0.021129 
0.884455 0.051999 -0.013352 
0.884455 0.052719 -0.007887 
0.884455 0.053817 0.000458 
0.884455 0.053098 0.005924 
0.884455 0.051999 0.014269 
0.884455 0.049889 0.019362 
0.884455 0.046668 0.027138 
0.884455 0.043313 0.031512 
0.884455 0.038188 0.038189 
0.884455 0.033815 0.041545 
0.884455 0.027137 0.046669 
0.884455 0.022044 0.048779 
0.884455 0.014268 0.052 
0.884455 0.005923 0.053099 
0.884455 0.000457 0.053818 
0.884455 -0.007888 0.052719 
0.884455 -0.013353 0.052 
0.065315 0.049941 0.185134 
0.065315 0.096053 0.166034 
0.065315 0.13565 0.135651 
0.065315 0.166033 0.096054 
0.065315 0.185133 0.049942 
0.065315 0.191648 0.000458 
0.065315 0.185133 -0.049025 
0.065315 0.166033 -0.095137 
0.065315 0.13565 -0.134734 
0.065315 0.096053 -0.165118 
0.065315 0.049941 -0.184218 
0.065315 0.000457 -0.190732 
0.065315 -0.049026 -0.184218 
0.065315 -0.095138 -0.165118 
0.065315 -0.134735 -0.134734 
0.065315 -0.165119 -0.095137 
0.065315 -0.184219 -0.049025 
0.065315 -0.190733 0.000458 
0.065315 -0.184219 0.049942 
0.065315 -0.165119 0.096054 
0.065315 -0.134735 0.135651 
0.065315 -0.095138 0.166034 
0.065315 -0.049026 0.185134 
0.065315 0.000457 0.191649 
0.065315 0.022006 -0.079963 
0.065315 0.042087 -0.071646 
0.065315 0.05933 -0.058414 
0.065315 0.072561 -0.041171 
0.065315 0.080879 -0.021091 
0.065315 0.083716 0.000458 
0.065315 0.080879 0.022007 
0.065315 0.072561 0.042088 
0.065315 0.05933 0.059331 
0.065315 0.042087 0.072562 
0.065315 0.022006 0.08088 
0.065315 0.000457 0.083717 
0.065315 -0.021091 0.08088 
0.065315 -0.041172 0.072562 
0.065315 -0.058415 0.059331 
0.065315 -0.071647 0.042088 
0.065315 -0.079964 0.022007 
0.065315 -0.082801 0.000458 
0.065315 -0.079964 -0.021091 
0.065315 -0.071647 -0.041171 
0.065315 -0.058415 -0.058414 
0.065315 -0.041172 -0.071646 
0.065315 -0.021091 -0.079963 
0.065315 0.000457 -0.0828 
-0.317879 -0.049026 0.185134 
-0.317879 -0.095138 0.166034 
-0.317879 -0.134735 0.135651 
-0.317879 -0.165119 0.096054 
-0.317879 -0.184219 0.049942 
-0.317879 -0.190733 0.000458 
-0.317879 -0.184219 -0.049025 
-0.317879 -0.165119 -0.095137 
-0.317879 -0.134735 -0.134734 
-0.317879 -0.095138 -0.165118 
-0.317879 -0.049026 -0.184218 
-0.317879 0.000457 -0.190732 
-0.317879 0.049941 -0.184218 
-0.317879 0.096053 -0.165118 
-0.317879 0.13565 -0.134734 
-0.317879 0.166033 -0.095137 
-0.317879 0.185133 -0.049025 
-0.317879 0.191648 0.000458 
-0.317879 0.185133 0.049942 
-0.317879 0.166033 0.096054 
-0.317879 0.13565 0.135651 
-0.317879 0.096053 0.166034 
-0.317879 0.049941 0.185134 
-0.317879 0.000457 0.191649 
-0.317879 -0.021091 -0.079963 
-0.317879 -0.041172 -0.071646 
-0.317879 -0.058415 -0.058414 
-0.317879 -0.071647 -0.041171 
-0.317879 -0.079964 -0.021091 
-0.317879 -0.082801 0.000458 
-0.317879 -0.079964 0.022007 
-0.317879 -0.071647 0.042088 
-0.317879 -0.058415 0.059331 
-0.317879 -0.041172 0.072562 
-0.317879 -0.021091 0.08088 
-0.317879 0.000457 0.083717 
-0.317879 0.022006 0.08088 
-0.317879 0.042087 0.072562 
-0.317879 0.05933 0.059331 
-0.317879 0.072561 0.042088 
-0.317879 0.080879 0.022007 
-0.317879 0.083716 0.000458 
-0.317879 0.080879 -0.021091 
-0.317879 0.072561 -0.041171 
-0.317879 0.05933 -0.058414 
-0.317879 0.042087 -0.071646 
-0.317879 0.022006 -0.079963 
-0.317879 0.000457 -0.0828 
-0.826823 -0.021091 0.08088 
-0.826823 -0.041172 0.072562 
-0.826823 -0.058415 0.059331 
-0.826823 -0.071647 0.042088 
-0.826823 -0.079964 0.022007 
-0.826823 -0.082801 0.000458 
-0.826823 -0.079964 -0.021091 
-0.826823 -0.071647 -0.041171 
-0.826823 -0.058415 -0.058414 
-0.826823 -0.041172 -0.071646 
-0.826823 -0.021091 -0.079963 
-0.826823 0.000457 -0.0828 
-0.826823 0.022006 -0.079963 
-0.826823 0.042087 -0.071646 
-0.826823 0.05933 -0.058414 
-0.826823 0.072561 -0.041171 
-0.826823 0.080879 -0.021091 
-0.826823 0.083716 0.000458 
-0.826823 0.080879 0.022007 
-0.826823 0.072561 0.042088 
-0.826823 0.05933 0.059331 
-0.826823 0.042087 0.072562 
-0.826823 0.022006 0.08088 
-0.826823 0.000457 0.083717 
0.998541 0.014268 0.052 
0.998541 0.027137 0.046669 
0.998541 0.038188 0.038189 
0.998541 0.046668 0.027138 
0.998541 0.051999 0.014269 
0.998541 0.053817 0.000458 
0.998541 0.051999 -0.013352 
0.998541 0.046668 -0.026222 
0.998541 0.038188 -0.037273 
0.998541 0.027137 -0.045753 
0.998541 0.014268 -0.051083 
0.998541 0.000457 -0.052901 
0.998541 -0.013353 -0.051083 
0.998541 -0.026223 -0.045753 
0.998541 -0.037274 -0.037273 
0.998541 -0.045754 -0.026222 
0.998541 -0.051084 -0.013352 
0.998541 -0.052902 0.000458 
0.998541 -0.051084 0.014269 
0.998541 -0.045754 0.027138 
0.998541 -0.037274 0.038189 
0.998541 -0.026223 0.046669 
0.998541 -0.013353 0.052 
0.998541 0.000457 0.053818 
0.809739 0.014268 0.052 
0.809739 0.027137 0.046669 
0.809739 0.038188 0.038189 
0.809739 0.046668 0.027138 
0.809739 0.051999 0.014269 
0.809739 0.053817 0.000458 
0.809739 0.051999 -0.013352 
0.809739 0.046668 -0.026222 
0.809739 0.038188 -0.037273 
0.809739 0.027137 -0.045753 
0.809739 0.014268 -0.051083 
0.809739 0.000457 -0.052901 
0.809739 -0.013353 -0.051083 
0.809739 -0.026223 -0.045753 
0.809739 -0.037274 -0.037273 
0.809739 -0.045754 -0.026222 
0.809739 -0.051084 -0.013352 
0.809739 -0.052902 0.000458 
0.809739 -0.051084 0.014269 
0.809739 -0.045754 0.027138 
0.809739 -0.037274 0.038189 
0.809739 -0.026223 0.046669 
0.809739 -0.013353 0.052 
0.809739 0.000457 0.053818 
0.809739 0.022006 0.08088 
0.809739 0.042087 0.072562 
0.809739 0.05933 0.059331 
0.809739 0.072561 0.042088 
0.809739 0.080879 0.022007 
0.809739 0.083716 0.000458 
0.809739 0.080879 -0.021091 
0.809739 0.072561 -0.041171 
0.809739 0.05933 -0.058414 
0.809739 0.042087 -0.071646 
0.809739 0.022006 -0.079963 
0.809739 0.000457 -0.0828 
0.809739 -0.021091 -0.079963 
0.809739 -0.041172 -0.071646 
0.809739 -0.058415 -0.058414 
0.809739 -0.071647 -0.041171 
0.809739 -0.079964 -0.021091 
0.809739 -0.082801 0.000458 
0.809739 -0.079964 0.022007 
0.809739 -0.071647 0.042088 
0.809739 -0.058415 0.059331 
0.809739 -0.041172 0.072562 
0.809739 -0.021091 0.08088 
0.809739 0.000457 0.083717 
