0.961729 0.555644 0.167755
0.828071 0.372170 0.123456
0.673032 0.591897 0.215341
0.899829 0.469586 0.115458
0.895587 0.635223 0.333301
0.824992 0.372766 0.307270
0.999447 0.633108 0.265731
0.911694 0.617268 0.190630
0.918397 0.527898 0.278776
0.886314 0.478198 0.253375
0.796917 0.418042 0.090533
0.793220 0.458681 0.121372
0.786941 0.389075 0.087867
0.932781 0.590750 0.185079
0.733866 0.616838 0.105846
0.755443 0.598697 0.119026
0.889091 0.537625 0.250876
0.797131 0.579539 0.277524
0.859856 0.586735 0.089749
0.992727 0.625538 0.243766
0.859308 0.439013 0.006607
0.868465 0.418597 0.179331
0.829159 0.378465 0.315380
0.707542 0.630730 0.306983
0.853238 0.418821 0.269427
0.889227 0.553535 0.102327
0.978622 0.382493 0.105959
0.845902 0.588185 0.060763
0.715969 0.579885 0.100491
0.850513 0.483663 0.297826
0.710100 0.439928 0.032767
0.902032 0.433693 0.167933
0.721579 0.370402 0.209323
0.783743 0.503807 0.060159
0.703055 0.350773 0.058544
0.757249 0.485876 0.253909
0.969669 0.343982 0.047143
0.884375 0.382796 0.037747
0.708687 0.570042 0.118322
0.714373 0.442735 0.099450
0.940171 0.505940 0.195120
0.737175 0.364795 0.007452
0.873359 0.535992 0.252974
0.816045 0.552547 0.307440
0.965249 0.617447 0.300564
0.819080 0.390033 0.249328
0.740609 0.483501 0.101212
0.843031 0.500955 0.210968
0.872516 0.618192 0.250971
0.958566 0.578483 0.102834
0.967125 0.645902 0.022323
0.857126 0.524721 0.120259
0.865064 0.650532 0.135604
0.918435 0.353518 0.183922
0.870674 0.364423 0.266604
0.962104 0.433904 0.180426
0.922090 0.615316 0.101128
0.713202 0.440711 0.047483
0.696552 0.473753 0.263915
0.958945 0.526979 0.222405
0.716205 0.351985 0.030020
0.750847 0.543576 0.115353
0.940501 0.512557 0.032656
0.761690 0.490051 0.195535
0.690226 0.578310 0.322994
0.885140 0.556776 0.299832
0.852111 0.609869 0.119972
0.750139 0.644233 0.317140
0.719000 0.398653 0.110788
0.748986 0.573554 0.201505
0.902578 0.446108 0.088196
0.964525 0.418909 0.206192
0.678713 0.432723 0.214099
0.711905 0.525085 0.195541
0.903116 0.431374 0.017599
0.754681 0.552503 0.183069
0.775764 0.543800 0.121997
0.862627 0.641364 0.306592
0.754243 0.464369 0.172153
0.827994 0.634620 0.132278
0.740346 0.635002 0.065084
0.685435 0.335340 0.027891
0.733723 0.476296 0.011439
0.977695 0.490356 0.286035
0.935078 0.598716 0.328554
0.722723 0.464859 0.177246
0.827030 0.452809 0.217163
0.767729 0.454907 0.221227
0.938367 0.502478 0.108170
0.790988 0.505665 0.011746
0.677860 0.462343 0.198832
0.929298 0.343076 0.192251
0.792646 0.564229 0.049139
0.783145 0.395120 0.054504
0.868396 0.396472 0.196598
0.946086 0.420780 0.012719
0.814416 0.504058 0.154814
0.819603 0.422362 0.042202
0.935279 0.625420 0.080035
0.714020 0.581073 0.189141
0.918299 0.485752 0.122091
0.941395 0.374489 0.325837
0.876646 0.454055 0.011272
0.945031 0.525412 0.266067
0.844529 0.569302 0.105518
0.810667 0.543759 0.193172
0.702374 0.400360 0.042320
0.970285 0.362347 0.121127
0.937842 0.489355 0.276889
0.736248 0.619667 0.161272
0.937201 0.355872 0.272313
0.902156 0.594375 0.003243
0.974721 0.398538 0.037482
0.725214 0.451281 0.303608
0.921209 0.440418 0.133147
0.818588 0.614984 0.253868
0.862211 0.641628 0.243616
0.682169 0.404094 0.211984
0.808715 0.545189 0.111026
0.812936 0.425522 0.251028
0.912207 0.626093 0.222424
0.971570 0.611443 0.041012
0.827275 0.490479 0.157461
0.789697 0.586768 0.069824
0.720853 0.367980 0.177076
0.732270 0.474722 0.170588
0.695002 0.528808 0.184723
0.927717 0.358289 0.254365
0.826723 0.429317 0.154383
0.729630 0.615247 0.231632
0.835410 0.578680 0.189080
0.689214 0.506338 0.153831
0.717122 0.877945 0.053171
0.760635 0.860188 0.057735
0.976309 0.681324 0.086144
0.791163 0.910035 0.308414
0.712624 0.728654 0.184937
0.936219 0.912657 0.233303
0.891130 0.895527 0.219057
0.767793 0.722082 0.291570
0.938125 0.683378 0.072458
0.746547 0.984403 0.265032
0.931139 0.918580 0.180128
0.720506 0.970325 0.100788
0.924860 0.817414 0.030299
0.667379 0.876105 0.153634
0.806832 0.904931 0.056057
0.832259 0.764660 0.213349
0.954373 0.986217 0.098581
0.932166 0.750826 0.098340
0.768206 0.863338 0.315005
0.929306 0.977442 0.133613
0.712588 0.909357 0.220268
0.826316 0.953793 0.176974
0.778026 0.700929 0.161768
0.685436 0.710800 0.253714
0.997028 0.912818 0.163661
0.727958 0.982855 0.285168
0.823899 0.776501 0.039617
0.703485 0.829648 0.007838
0.984886 0.899489 0.032943
0.843561 0.815191 0.002271
0.837300 0.963246 0.167831
0.940569 0.731946 0.094106
0.858604 0.705172 0.137206
0.949716 0.686741 0.004822
0.817833 0.728843 0.026745
0.809846 0.706969 0.266220
0.951069 0.982392 0.237406
0.773381 0.886108 0.161253
0.725174 0.676723 0.213623
0.831946 0.809008 0.310421
0.699273 0.771295 0.205316
0.749214 0.753527 0.305696
0.732411 0.726013 0.148867
0.773204 0.866769 0.179017
0.772299 0.822930 0.300932
0.674540 0.691085 0.293980
0.982382 0.720869 0.223297
0.863991 0.840832 0.134044
0.757484 0.729409 0.169514
0.671099 0.731038 0.153968
0.961418 0.984870 0.197110
0.748740 0.680632 0.222310
0.724949 0.941394 0.009295
0.748050 0.739805 0.080446
0.908846 0.699867 0.048422
0.812781 0.820439 0.261822
0.673536 0.858095 0.185604
0.880087 0.781488 0.311201
0.669012 0.960682 0.127396
0.951186 0.926582 0.124974
0.940511 0.929984 0.020165
0.768451 0.783968 0.003806
0.943174 0.708596 0.239625
0.730683 0.717459 0.205826
0.952740 0.811834 0.084611
0.974114 0.717175 0.299586
0.937068 0.744663 0.278547
0.863076 0.918345 0.033676
0.685269 0.772418 0.160052
0.881761 0.701132 0.321818
0.696178 0.993665 0.154978
0.815787 0.957922 0.060743
0.700649 0.701295 0.147196
0.790976 0.896196 0.226813
0.987865 0.799125 0.034881
0.915644 0.852669 0.311302
0.883009 0.810765 0.010426
0.747780 0.973208 0.052806
0.885756 0.836035 0.038105
0.829165 0.827720 0.271017
0.803442 0.863435 0.330494
0.988742 0.954691 0.144907
0.829752 0.726029 0.162994
0.847331 0.809800 0.130914
0.782423 0.774119 0.195434
0.760737 0.794113 0.003427
0.749803 0.812615 0.051472
0.733342 0.755483 0.243884
0.823468 0.671642 0.082478
0.851273 0.867764 0.153527
0.698257 0.679399 0.182109
0.989748 0.833759 0.278034
0.881312 0.891390 0.205672
0.897736 0.825022 0.147093
0.819041 0.861880 0.271816
0.689957 0.962598 0.105546
0.708520 0.841143 0.177766
0.701691 0.785279 0.140431
0.916075 0.930478 0.326241
0.790172 0.998575 0.054401
0.792112 0.742178 0.257520
0.800438 0.759557 0.207298
0.818844 0.739237 0.030523
0.704627 0.944082 0.062330
0.942063 0.921728 0.254182
0.786441 0.678280 0.194132
0.782039 0.830488 0.074508
0.783480 0.787049 0.072524
0.675716 0.894808 0.297628
0.774284 0.949102 0.132114
0.985311 0.691675 0.031873
0.751815 0.872074 0.255057
0.795700 0.807252 0.199177
0.812132 0.785444 0.196344
0.979244 0.988591 0.274987
0.831129 0.868906 0.171460
0.880812 0.818684 0.293731
0.676191 0.800787 0.202738
0.826267 0.825660 0.161739
0.750582 0.923513 0.118731
0.730875 0.936850 0.028343
0.807847 0.992482 0.079963
0.793162 0.987902 0.127876
0.990483 0.703209 0.129058
0.235503 0.231658 0.446453
0.088403 0.213829 0.445560
0.050899 0.087655 0.376785
0.128154 0.213784 0.574483
0.280478 0.197887 0.615552
0.233592 0.256101 0.598082
0.050740 0.204275 0.504348
0.088894 0.193585 0.361268
0.319279 0.321957 0.664967
0.008049 0.241243 0.385916
0.097132 0.180140 0.459615
0.098885 0.198661 0.340666
0.289240 0.221080 0.586166
0.124090 0.205696 0.350223
0.323166 0.102616 0.334097
0.016333 0.121162 0.357708
0.131735 0.205444 0.526280
0.085567 0.259321 0.339977
0.041822 0.224263 0.448667
0.220303 0.333299 0.607478
0.232320 0.019585 0.426282
0.127857 0.324255 0.337334
0.226502 0.291270 0.516947
0.216040 0.292976 0.340780
0.067123 0.223422 0.575750
0.312568 0.197218 0.573114
0.084198 0.121378 0.446803
0.305960 0.247258 0.639241
0.270752 0.124043 0.529967
0.030335 0.013862 0.549834
0.154189 0.061253 0.542722
0.199479 0.214865 0.636897
0.134216 0.156806 0.381700
0.038730 0.237805 0.522889
0.032241 0.167293 0.509951
0.191025 0.209131 0.507890
0.056828 0.284844 0.347294
0.130494 0.331863 0.506187
0.129301 0.198711 0.508541
0.029832 0.059887 0.473521
0.218108 0.214425 0.645483
0.200957 0.068755 0.425340
0.039046 0.085273 0.427793
0.017029 0.011063 0.568892
0.037666 0.216793 0.642750
0.075466 0.100719 0.594616
0.054989 0.053611 0.583576
0.314324 0.317947 0.387864
0.144441 0.157920 0.398367
0.013947 0.295108 0.655126
0.204956 0.216848 0.544563
0.189309 0.132901 0.362101
0.048889 0.131136 0.527671
0.123536 0.127933 0.653271
0.314996 0.014695 0.502560
0.234094 0.156559 0.474492
0.294162 0.033255 0.357814
0.181290 0.183206 0.473377
0.237004 0.183337 0.443517
0.067790 0.133594 0.417452
0.328587 0.290610 0.657186
0.075662 0.189760 0.463161
0.276628 0.258473 0.419399
0.263017 0.098360 0.354248
0.241531 0.106507 0.576526
0.059571 0.065199 0.356466
0.212261 0.327715 0.448632
0.143592 0.264188 0.391789
0.164357 0.083486 0.627401
0.027426 0.160278 0.655019
0.115192 0.091505 0.444777
0.240255 0.291978 0.377704
0.090458 0.260311 0.603347
0.201035 0.052547 0.580856
0.212653 0.032314 0.348380
0.081232 0.263624 0.433268
0.291456 0.317845 0.461683
0.000817 0.302095 0.641483
0.073831 0.029959 0.439509
0.302231 0.307093 0.464978
0.224614 0.076878 0.492598
0.128792 0.170658 0.454948
0.172185 0.239980 0.590328
0.237415 0.297887 0.390077
0.127867 0.296001 0.342139
0.270416 0.072397 0.635195
0.311328 0.023587 0.636014
0.293758 0.225840 0.517779
0.063109 0.230384 0.396070
0.104272 0.177844 0.456343
0.062631 0.324036 0.392175
0.187516 0.233000 0.501028
0.192032 0.160537 0.385722
0.101937 0.152874 0.408684
0.240583 0.090234 0.623451
0.159167 0.140246 0.571478
0.086459 0.304529 0.638188
0.138275 0.115006 0.378214
0.214498 0.223272 0.584405
0.141568 0.314504 0.557501
0.186726 0.089897 0.564088
0.328638 0.160635 0.585599
0.078704 0.113989 0.449037
0.052857 0.145413 0.537901
0.196897 0.102993 0.664944
0.093712 0.178601 0.475366
0.188137 0.151497 0.422148
0.269976 0.083850 0.554749
0.174758 0.245471 0.555110
0.141450 0.098631 0.590214
0.311128 0.248542 0.338712
0.011491 0.183322 0.655283
0.079403 0.127250 0.472919
0.045286 0.235729 0.436050
0.229685 0.035869 0.438996
0.142336 0.272781 0.586615
0.288353 0.024374 0.646363
0.163497 0.108328 0.374447
0.271225 0.017414 0.616520
0.015072 0.013201 0.491927
0.009369 0.102684 0.368329
0.250141 0.282623 0.432767
0.057897 0.027009 0.344896
0.284266 0.291265 0.549832
0.249832 0.273885 0.394266
0.331400 0.320304 0.623472
0.104959 0.160135 0.375593
0.092219 0.245333 0.460029
0.031211 0.223523 0.509074
0.155717 0.269995 0.582065
0.280356 0.125692 0.384901
0.242421 0.153973 0.508886
0.164077 0.214085 0.643650
0.275955 0.267604 0.411251
0.244585 0.068504 0.383868
0.110536 0.014191 0.651701
0.000212 0.007891 0.426947
0.073461 0.251800 0.483856
0.251530 0.001573 0.408199
0.092336 0.040682 0.543214
0.212899 0.250570 0.340704
0.195061 0.236139 0.537215
0.120369 0.257032 0.506499
0.164084 0.140709 0.573183
0.215189 0.249390 0.589289
0.144402 0.234571 0.406878
0.110297 0.149695 0.371801
0.242850 0.190069 0.481968
0.018160 0.052518 0.636992
0.249345 0.224290 0.465544
0.148496 0.246972 0.453022
0.296463 0.185624 0.652730
0.027098 0.066448 0.366660
0.277865 0.266625 0.456270
0.149949 0.194760 0.619098
0.143089 0.213021 0.443706
0.086420 0.188640 0.631521
0.236470 0.167485 0.561300
0.233181 0.102503 0.427765
0.264194 0.145039 0.457073
0.011749 0.261394 0.645255
0.026933 0.166088 0.390328
0.291699 0.294263 0.337358
0.239607 0.328788 0.424193
0.281775 0.621288 0.530520
0.209436 0.388926 0.586539
0.117376 0.344290 0.412391
0.266891 0.344928 0.544532
0.098624 0.383238 0.396268
0.070006 0.518564 0.344528
0.158725 0.364752 0.364333
0.316431 0.664053 0.451434
0.156766 0.558791 0.444846
0.023306 0.540071 0.593584
0.042894 0.435094 0.592758
0.024141 0.343199 0.634833
0.053145 0.468848 0.468817
0.200990 0.641461 0.654845
0.076582 0.494166 0.621797
0.242070 0.647223 0.577680
0.024012 0.423294 0.603542
0.305541 0.379330 0.569476
0.326819 0.501291 0.506797
0.048094 0.652761 0.502258
0.036683 0.427223 0.428684
0.198344 0.380045 0.560673
0.165878 0.571877 0.369704
0.095383 0.645076 0.460183
0.115807 0.418094 0.653751
0.068954 0.472824 0.392588
0.046436 0.630286 0.592127
0.287347 0.426764 0.507845
0.042983 0.375989 0.364440
0.196583 0.433974 0.553212
0.293211 0.535058 0.537400
0.005545 0.622146 0.571683
0.018304 0.392960 0.439524
0.326158 0.556903 0.440445
0.089195 0.431078 0.401222
0.256550 0.473414 0.618116
0.047939 0.506145 0.377306
0.172447 0.481715 0.535519
0.315328 0.366420 0.409876
0.201225 0.510044 0.511026
0.239608 0.411215 0.413397
0.310666 0.472046 0.459071
0.008059 0.629360 0.616340
0.095982 0.418957 0.646689
0.088226 0.334329 0.616636
0.296951 0.420309 0.435259
0.230580 0.385365 0.421030
0.198879 0.382728 0.339450
0.069004 0.547283 0.522914
0.185951 0.590551 0.503863
0.181884 0.528130 0.623104
0.068099 0.407889 0.488593
0.159062 0.654689 0.494751
0.221558 0.514747 0.571108
0.183045 0.529714 0.536942
0.076062 0.467304 0.597644
0.121756 0.338612 0.416320
0.075802 0.644974 0.544980
0.161555 0.588365 0.445776
0.307427 0.341989 0.406283
0.288044 0.344969 0.660521
0.148342 0.570372 0.502901
0.247252 0.658701 0.528015
0.003218 0.457064 0.482241
0.063202 0.506256 0.455153
0.004904 0.541160 0.559823
0.161620 0.523928 0.593250
0.099746 0.661739 0.552974
0.020870 0.451872 0.360372
0.043115 0.642669 0.510093
0.249208 0.579104 0.344609
0.229095 0.557161 0.409454
0.032575 0.550559 0.510354
0.189217 0.452082 0.484671
0.145148 0.374018 0.443241
0.131480 0.625462 0.618958
0.127664 0.636980 0.435425
0.310176 0.460511 0.464673
0.176751 0.569251 0.514492
0.054200 0.403317 0.382469
0.201747 0.452543 0.355140
0.307460 0.422015 0.359778
0.070133 0.636861 0.551487
0.035340 0.379678 0.431662
0.152199 0.474901 0.446748
0.036922 0.665589 0.606815
0.074579 0.664621 0.459243
0.045799 0.524310 0.567970
0.154148 0.351004 0.583949
0.035434 0.536940 0.590787
0.092464 0.552700 0.504513
0.065384 0.620131 0.445117
0.160255 0.512025 0.517344
0.079694 0.396572 0.351998
0.015578 0.336046 0.420373
0.079606 0.575390 0.340652
0.229577 0.589408 0.494827
0.011140 0.355036 0.354461
0.199856 0.373517 0.620475
0.071079 0.517471 0.521344
0.089601 0.349969 0.382174
0.128328 0.577121 0.549437
0.152445 0.643934 0.362807
0.073245 0.484092 0.398160
0.092336 0.417230 0.369599
0.171713 0.643027 0.518292
0.332954 0.518025 0.382604
0.026773 0.481949 0.411509
0.120199 0.418359 0.474855
0.092415 0.555173 0.556812
0.105856 0.518077 0.566357
0.185979 0.438534 0.454364
0.300067 0.565109 0.557094
0.161951 0.480495 0.356693
0.084475 0.402380 0.516325
0.185089 0.488499 0.572013
0.181009 0.419120 0.584047
0.048103 0.445112 0.494586
0.077128 0.605905 0.378240
0.066566 0.604192 0.473443
0.199369 0.568131 0.445966
0.015587 0.558053 0.425814
0.171659 0.518893 0.483867
0.112565 0.334424 0.661321
0.292864 0.461022 0.596097
0.021224 0.349668 0.502986
0.026396 0.535344 0.343900
0.129890 0.341358 0.578626
0.217687 0.430837 0.454541
0.257220 0.631207 0.632935
0.122597 0.370751 0.533723
0.300812 0.414938 0.422492
0.305555 0.456929 0.374410
0.039841 0.373685 0.653833
0.186282 0.428856 0.409906
0.307116 0.622920 0.516622
0.204004 0.592625 0.435013
0.183318 0.421086 0.620123
0.288800 0.482156 0.471235
0.264031 0.348601 0.450978
0.036013 0.640529 0.452007
0.145345 0.527389 0.527427
0.096239 0.408539 0.490327
0.040956 0.392531 0.470361
0.069694 0.538683 0.496236
0.222079 0.543388 0.605995
0.061754 0.455334 0.658120
0.137759 0.994099 0.592577
0.263863 0.868844 0.562727
0.074827 0.767729 0.353984
0.099906 0.868079 0.611586
0.308114 0.671321 0.386781
0.181266 0.924546 0.658463
0.179080 0.718305 0.502928
0.084439 0.866048 0.546163
0.136316 0.749095 0.493139
0.328853 0.829778 0.432996
0.301470 0.732436 0.587201
0.265215 0.700461 0.634925
0.152733 0.840099 0.483557
0.044597 0.989810 0.503204
0.069979 0.949546 0.418194
0.063050 0.727184 0.516025
0.030388 0.777284 0.550523
0.096760 0.875439 0.573073
0.064962 0.842890 0.588630
0.126694 0.839920 0.627873
0.061571 0.870638 0.649815
0.170465 0.986441 0.616997
0.258507 0.718904 0.397563
0.123317 0.790261 0.403455
0.210761 0.939811 0.591497
0.292019 0.728287 0.488327
0.092438 0.781825 0.431512
0.000131 0.850913 0.518252
0.324346 0.841859 0.574303
0.186196 0.915209 0.392451
0.226769 0.825018 0.538892
0.009228 0.995033 0.531174
0.250959 0.850317 0.511170
0.315020 0.773837 0.566615
0.165296 0.866858 0.562670
0.017231 0.839582 0.465690
0.177141 0.947210 0.365920
0.106626 0.739856 0.532708
0.058797 0.761662 0.364505
0.231108 0.994863 0.396521
0.320907 0.930524 0.559620
0.141730 0.685354 0.365047
0.326243 0.876409 0.377696
0.245274 0.832132 0.403491
0.283671 0.829113 0.354156
0.135208 0.874389 0.549628
0.189969 0.979366 0.581360
0.063941 0.748586 0.540432
0.310037 0.681157 0.451486
0.078624 0.941329 0.495469
0.211155 0.790816 0.367359
0.142101 0.957665 0.539514
0.209842 0.799039 0.506159
0.077476 0.932750 0.462897
0.271339 0.821605 0.355632
0.220465 0.891593 0.377026
0.326737 0.899528 0.443991
0.264391 0.942841 0.511752
0.039222 0.837157 0.662541
0.002003 0.727160 0.625349
0.321154 0.757379 0.585579
0.037074 0.686166 0.594999
0.306812 0.667248 0.593441
0.043747 0.801343 0.521034
0.070382 0.850434 0.431815
0.325676 0.694220 0.533788
0.243470 0.746498 0.579981
0.152807 0.849685 0.577148
0.123243 0.831980 0.448084
0.256453 0.697150 0.521291
0.013852 0.764487 0.488233
0.184751 0.682726 0.402749
0.213096 0.674923 0.428150
0.229636 0.808472 0.439468
0.077054 0.923603 0.421976
0.273627 0.877625 0.641852
0.115601 0.721808 0.630847
0.250676 0.778768 0.370907
0.146553 0.849192 0.598487
0.130456 0.911525 0.387287
0.038349 0.980349 0.439314
0.308835 0.868908 0.436807
0.314782 0.929402 0.495339
0.243929 0.991981 0.382575
0.069090 0.988939 0.552968
0.278463 0.970859 0.473886
0.133879 0.990366 0.656218
0.213282 0.757064 0.452551
0.095148 0.733980 0.578336
0.112646 0.710674 0.590756
0.308738 0.785590 0.649625
0.087648 0.815175 0.508694
0.066646 0.986057 0.341056
0.068684 0.947798 0.662261
0.143997 0.821188 0.427063
0.282614 0.724128 0.657175
0.013353 0.711685 0.361814
0.197740 0.836078 0.416916
0.028227 0.719704 0.385105
0.194749 0.959845 0.610124
0.312866 0.908678 0.611773
0.266038 0.783945 0.462412
0.028373 0.808651 0.465514
0.100600 0.743957 0.447150
0.162760 0.978219 0.491051
0.226580 0.969583 0.475194
0.096702 0.952609 0.638055
0.267103 0.841493 0.529155
0.095799 0.989388 0.496821
0.030707 0.959993 0.501147
0.112365 0.697883 0.653567
0.228193 0.900895 0.438332
0.317446 0.683746 0.487278
0.292995 0.983192 0.546610
0.288284 0.919112 0.566159
0.183702 0.895238 0.477715
0.320002 0.942837 0.477912
0.328017 0.813391 0.471122
0.042046 0.872323 0.435748
0.203318 0.774745 0.545792
0.199586 0.842068 0.591725
0.078869 0.847068 0.438297
0.282862 0.738494 0.420999
0.192021 0.948305 0.562345
0.151005 0.857425 0.455664
0.316077 0.950095 0.375676
0.243454 0.860541 0.656407
0.084018 0.998527 0.515581
0.108637 0.777936 0.357854
0.003888 0.943914 0.630635
0.281670 0.682833 0.509672
0.135815 0.796855 0.391175
0.110082 0.668677 0.557599
0.260282 0.982724 0.598874
0.124098 0.716990 0.620245
0.177485 0.689323 0.609772
0.300347 0.981061 0.557075
0.168101 0.701682 0.515375
0.076010 0.941097 0.573318
0.243741 0.909767 0.526559
0.099744 0.887389 0.602710
0.276868 0.951368 0.618262
0.238307 0.997612 0.340279
0.293990 0.779992 0.399074
0.451493 0.068931 0.447479
0.389656 0.080933 0.587296
0.346022 0.069029 0.337872
0.612437 0.301495 0.446261
0.552480 0.312135 0.352168
0.627774 0.288842 0.448243
0.537265 0.212560 0.439100
0.565914 0.274637 0.360734
0.642110 0.260718 0.343292
0.626264 0.186640 0.432319
0.513875 0.159267 0.459020
0.484936 0.116764 0.616700
0.639613 0.102252 0.511456
0.596816 0.017931 0.492362
0.369993 0.182977 0.484926
0.513690 0.026330 0.374341
0.559456 0.324027 0.622717
0.359163 0.165928 0.562568
0.441050 0.217267 0.578746
0.547901 0.182472 0.612530
0.539588 0.202095 0.449716
0.371061 0.171876 0.467329
0.479005 0.302673 0.502277
0.583825 0.088563 0.477432
0.464977 0.103950 0.633828
0.432704 0.185811 0.406536
0.337347 0.041342 0.549309
0.582710 0.322263 0.554913
0.409365 0.221177 0.435264
0.596756 0.114688 0.594881
0.664956 0.327230 0.659971
0.580577 0.235366 0.554699
0.346617 0.190032 0.507267
0.344535 0.170507 0.413717
0.505767 0.232127 0.497067
0.633083 0.266582 0.369449
0.636708 0.050610 0.468880
0.574545 0.041809 0.628933
0.474236 0.109268 0.585219
0.384113 0.282092 0.648100
0.381090 0.042999 0.511349
0.491749 0.252194 0.335899
0.444045 0.243588 0.441203
0.466781 0.019684 0.493403
0.490414 0.319132 0.556238
0.463031 0.190789 0.348725
0.459924 0.223176 0.467136
0.614225 0.156372 0.532504
0.459739 0.186116 0.585250
0.443119 0.244891 0.406706
0.560620 0.010749 0.381036
0.575533 0.018389 0.536372
0.397480 0.068321 0.590680
0.403507 0.147885 0.498323
0.636482 0.262199 0.580421
0.530424 0.123929 0.662708
0.505827 0.178089 0.457429
0.602180 0.172295 0.413902
0.397480 0.121871 0.435971
0.488900 0.067860 0.510907
0.634878 0.059333 0.543953
0.445422 0.211378 0.581338
0.454035 0.305382 0.454385
0.651422 0.064556 0.659255
0.521245 0.226737 0.552483
0.557105 0.027814 0.360300
0.500757 0.304734 0.649770
0.612937 0.285074 0.612084
0.639035 0.164621 0.382925
0.545000 0.003148 0.576717
0.590921 0.037016 0.499644
0.428558 0.143660 0.459296
0.642565 0.310136 0.555479
0.435570 0.112959 0.548118
0.532949 0.086913 0.371844
0.660226 0.211892 0.584176
0.421815 0.215350 0.608262
0.582945 0.043429 0.619671
0.547814 0.136819 0.609188
0.411984 0.195567 0.622897
0.592745 0.223867 0.558309
0.601190 0.259068 0.615455
0.480102 0.067437 0.503240
0.374437 0.277501 0.582266
0.521242 0.162790 0.574690
0.608617 0.269501 0.361059
0.415776 0.261178 0.576653
0.361465 0.326790 0.523155
0.374663 0.294876 0.664721
0.400990 0.101021 0.429822
0.563447 0.104338 0.610558
0.365773 0.007025 0.345947
0.337847 0.277762 0.630127
0.573501 0.255677 0.630265
0.482145 0.137896 0.542640
0.350133 0.088152 0.474358
0.449607 0.301402 0.413851
0.349713 0.252576 0.466180
0.416018 0.071145 0.370066
0.412875 0.232525 0.532325
0.552446 0.166249 0.333717
0.611343 0.078963 0.381847
0.409138 0.216377 0.460175
0.608049 0.258025 0.483449
0.407651 0.245142 0.464986
0.339093 0.271446 0.507842
0.478086 0.280567 0.468218
0.634453 0.242993 0.612348
0.373764 0.059925 0.586556
0.377917 0.000123 0.343608
0.484012 0.111882 0.623065
0.480828 0.058605 0.348931
0.498365 0.240699 0.450008
0.534607 0.251169 0.488844
0.531714 0.327988 0.536307
0.336272 0.205954 0.650165
0.414679 0.027709 0.464026
0.356649 0.290891 0.666030
0.442637 0.032110 0.631882
0.473034 0.088882 0.651707
0.340062 0.177373 0.657737
0.403170 0.033593 0.423292
0.602053 0.062349 0.485365
0.462926 0.200173 0.503246
0.510154 0.153375 0.500164
0.383098 0.203194 0.423167
0.598353 0.136673 0.561399
0.440911 0.221037 0.528014
0.421279 0.242625 0.520612
0.532296 0.261521 0.643083
0.573983 0.099135 0.382790
0.466310 0.267220 0.505744
0.486207 0.311929 0.368829
0.432308 0.044977 0.608246
0.441061 0.144915 0.374722
0.490889 0.154148 0.548872
0.665880 0.091286 0.339658
0.554458 0.047473 0.466893
0.346495 0.073871 0.453773
0.528194 0.208642 0.606140
0.354720 0.260042 0.612104
0.536743 0.220817 0.376609
0.550288 0.305207 0.644258
0.385626 0.185177 0.368278
0.535529 0.243957 0.521080
0.616476 0.075956 0.566131
0.429681 0.196091 0.397350
0.400798 0.232699 0.653100
0.647489 0.106121 0.523732
0.664566 0.162132 0.603419
0.470622 0.091659 0.425592
0.334687 0.270476 0.635317
0.434057 0.069498 0.526632
0.380447 0.112916 0.607581
0.353863 0.235556 0.553846
0.610823 0.174972 0.532972
0.381399 0.186863 0.427642
0.485032 0.105976 0.335378
0.491371 0.069439 0.530571
0.349332 0.301210 0.515977
0.506371 0.057525 0.410166
0.345506 0.159603 0.516495
0.617000 0.000060 0.655889
0.541345 0.392677 0.489844
0.647010 0.531190 0.369274
0.640159 0.619680 0.351172
0.407560 0.556262 0.564343
0.581791 0.475747 0.349353
0.474931 0.399344 0.590040
0.429645 0.391739 0.341792
0.634448 0.486318 0.648079
0.637362 0.568979 0.362524
0.593558 0.461070 0.525534
0.479400 0.528933 0.346589
0.352479 0.364480 0.562600
0.631916 0.557566 0.629877
0.508599 0.439127 0.662949
0.371206 0.335824 0.569058
0.499878 0.365129 0.643193
0.504709 0.627807 0.600194
0.551415 0.362398 0.563992
0.603158 0.657891 0.393816
0.567524 0.409543 0.615417
0.424213 0.430786 0.428203
0.490813 0.478951 0.662799
0.438200 0.425849 0.419337
0.401374 0.375546 0.656411
0.590365 0.461620 0.393110
0.341769 0.481996 0.417241
0.466027 0.342804 0.663088
0.471165 0.464921 0.473183
0.642722 0.534750 0.637265
0.420104 0.632478 0.572590
0.563032 0.462760 0.601344
0.618943 0.658285 0.546301
0.581878 0.336167 0.353338
0.593708 0.521783 0.662649
0.619704 0.530119 0.583342
0.363035 0.548959 0.339820
0.390016 0.523753 0.616527
0.406007 0.494687 0.611039
0.405136 0.627828 0.564846
0.581978 0.381363 0.380321
0.473772 0.528300 0.514473
0.468093 0.650875 0.566416
0.464438 0.384123 0.510942
0.432998 0.614246 0.568405
0.570498 0.560738 0.521601
0.451931 0.617252 0.348269
0.456916 0.621931 0.449591
0.572134 0.422410 0.491705
0.510298 0.553428 0.357499
0.493063 0.609608 0.432960
0.642758 0.487704 0.373151
0.390365 0.359896 0.435265
0.570118 0.395615 0.397921
0.497493 0.437274 0.390402
0.593874 0.408398 0.394795
0.537304 0.625011 0.507496
0.516499 0.351568 0.661505
0.530798 0.400796 0.378165
0.663426 0.642121 0.564885
0.361748 0.336295 0.419303
0.490070 0.392645 0.463510
0.522000 0.505251 0.596492
0.511377 0.577751 0.569817
0.662683 0.457954 0.577662
0.373580 0.620583 0.504661
0.436504 0.459977 0.339546
0.440816 0.524975 0.636132
0.614875 0.373157 0.629678
0.624100 0.528239 0.617674
0.376830 0.582020 0.639838
0.544917 0.464166 0.490470
0.456897 0.660297 0.460032
0.420289 0.478448 0.587682
0.590962 0.399190 0.627962
0.413353 0.510588 0.582122
0.623244 0.386818 0.618652
0.400816 0.663289 0.498942
0.447191 0.370788 0.381630
0.562909 0.415816 0.516507
0.519213 0.542808 0.592220
0.600024 0.563680 0.379095
0.370629 0.446889 0.395893
0.513378 0.569607 0.628717
0.396813 0.409853 0.475648
0.652064 0.552134 0.523056
0.400474 0.394790 0.409411
0.490013 0.406481 0.560458
0.633440 0.550632 0.377205
0.644339 0.390713 0.343251
0.594468 0.530912 0.374350
0.491412 0.492402 0.647928
0.476972 0.456310 0.390439
0.629033 0.379867 0.549967
0.523255 0.569236 0.356869
0.465346 0.655310 0.657813
0.500648 0.393261 0.624751
0.513943 0.501378 0.478908
0.459053 0.351527 0.664471
0.657920 0.428277 0.359569
0.573483 0.620971 0.608774
0.575587 0.572859 0.460776
0.410850 0.371051 0.637103
0.363091 0.630058 0.370811
0.505132 0.389828 0.576448
0.385854 0.544339 0.362085
0.570751 0.586852 0.660500
0.361744 0.571766 0.492388
0.394569 0.358918 0.476024
0.463427 0.665316 0.371220
0.480734 0.362560 0.502283
0.568195 0.598556 0.659459
0.586531 0.464537 0.632223
0.395612 0.409432 0.573705
0.450647 0.365155 0.474273
0.419522 0.371607 0.625731
0.537882 0.523912 0.597243
0.623785 0.653522 0.564121
0.373188 0.660763 0.479397
0.496423 0.433186 0.582099
0.656469 0.377375 0.389973
0.610271 0.613689 0.600795
0.630541 0.485326 0.641707
0.413354 0.651838 0.490870
0.353762 0.647577 0.432134
0.480984 0.635864 0.469373
0.453848 0.337032 0.464163
0.615223 0.633419 0.612083
0.398083 0.651916 0.586511
0.661912 0.336232 0.580125
0.427598 0.408997 0.518770
0.564540 0.475880 0.619651
0.551454 0.653073 0.368848
0.388939 0.594874 0.472187
0.429995 0.538088 0.603160
0.578517 0.586136 0.641756
0.435568 0.594790 0.630431
0.352655 0.404127 0.432290
0.447254 0.653719 0.391740
0.604843 0.537985 0.629121
0.393277 0.544114 0.654029
0.564149 0.452097 0.516981
0.386136 0.390788 0.508366
0.624817 0.528790 0.335608
0.520905 0.492355 0.497020
0.568624 0.614701 0.581367
0.524893 0.562700 0.387835
0.448497 0.461113 0.462550
0.552972 0.646761 0.386142
0.466344 0.593816 0.640466
0.350831 0.609251 0.483293
0.513003 0.360047 0.555625
0.519659 0.633232 0.395570
0.484030 0.556138 0.333572
0.552903 0.502089 0.662363
0.511167 0.423606 0.662605
0.348502 0.464025 0.441296
0.481533 0.664749 0.383209
0.418045 0.663357 0.412509
0.615938 0.590809 0.343048
0.484743 0.636077 0.610318
0.359649 0.643209 0.399900
0.458618 0.507905 0.453145
0.576508 0.632850 0.648902
0.506507 0.408231 0.452140
0.567456 0.618461 0.556002
0.371063 0.549515 0.379456
0.500299 0.496427 0.645267
0.620236 0.579389 0.483394
0.369108 0.361010 0.522403
0.444222 0.413951 0.635794
0.582841 0.621250 0.505109
0.336395 0.383060 0.399390
0.549191 0.599648 0.653314
0.383871 0.438076 0.491853
0.420267 0.619110 0.446629
0.606824 0.638115 0.556528
0.444933 0.569189 0.387929
0.363611 0.545095 0.657507
0.468350 0.650605 0.390161
0.549166 0.577859 0.621873
0.541955 0.480257 0.632548
0.565471 0.536648 0.389942
0.445467 0.783589 0.577009
0.592903 0.763919 0.340044
0.580449 0.698582 0.445205
0.503490 0.965886 0.424625
0.362950 0.713384 0.371805
0.582987 0.783133 0.664550
0.606023 0.739918 0.517533
0.489008 0.715991 0.552917
0.473017 0.735131 0.573927
0.409344 0.794323 0.503257
0.599161 0.886310 0.448885
0.390005 0.821594 0.349102
0.353646 0.916126 0.646469
0.580194 0.882183 0.593984
0.506944 0.802503 0.572992
0.422395 0.959948 0.630182
0.570166 0.707804 0.429789
0.372281 0.848547 0.440259
0.553310 0.825326 0.518294
0.622373 0.837952 0.406019
0.434847 0.763374 0.428974
0.664777 0.892572 0.354983
0.638364 0.881232 0.487499
0.342187 0.888921 0.587714
0.498903 0.835882 0.368900
0.481925 0.779913 0.492129
0.499166 0.742310 0.631886
0.388265 0.703482 0.609056
0.463911 0.692189 0.378524
0.618464 0.910198 0.632133
0.334943 0.818890 0.576708
0.391109 0.816788 0.517481
0.629670 0.689632 0.500874
0.386197 0.832808 0.613590
0.443612 0.827130 0.467203
0.521239 0.891343 0.383940
0.462789 0.925526 0.543193
0.481929 0.925618 0.473167
0.602088 0.899408 0.452539
0.548282 0.678923 0.597670
0.664302 0.676235 0.506913
0.550856 0.805234 0.647219
0.444901 0.927133 0.366100
0.583797 0.825714 0.462577
0.497897 0.758804 0.594072
0.596352 0.758990 0.360950
0.409231 0.672558 0.448491
0.358732 0.883847 0.582234
0.384975 0.965316 0.450168
0.660041 0.849418 0.663992
0.561307 0.773183 0.476577
0.390183 0.942759 0.589228
0.410682 0.927062 0.595691
0.477091 0.806710 0.356450
0.619582 0.741430 0.351799
0.577348 0.925423 0.556034
0.432538 0.757183 0.536312
0.557471 0.679898 0.507578
0.461673 0.711985 0.597053
0.482453 0.952080 0.432588
0.660286 0.911276 0.601551
0.595017 0.690853 0.470489
0.409797 0.845513 0.599272
0.473959 0.840372 0.547103
0.399871 0.763570 0.459776
0.618236 0.793748 0.514565
0.612549 0.791844 0.565716
0.568400 0.989565 0.593174
0.440576 0.711809 0.548863
0.488049 0.931962 0.473148
0.364731 0.894545 0.353359
0.367767 0.975638 0.410487
0.500269 0.940417 0.375739
0.443861 0.733424 0.434021
0.500582 0.861796 0.368677
0.444727 0.749922 0.661130
0.417929 0.945582 0.419581
0.501336 0.673125 0.517089
0.510222 0.823788 0.596295
0.495096 0.741987 0.384007
0.633744 0.970094 0.504344
0.649139 0.860871 0.557658
0.337598 0.783973 0.497071
0.437608 0.734790 0.402907
0.385564 0.700565 0.555707
0.605491 0.726453 0.465438
0.483738 0.924202 0.509988
0.458917 0.839284 0.452342
0.576748 0.979509 0.347935
0.538125 0.820552 0.519838
0.471998 0.783299 0.589319
0.572601 0.837956 0.613442
0.629188 0.762508 0.644403
0.423566 0.825423 0.525232
0.557983 0.731312 0.351078
0.658147 0.964739 0.504489
0.663895 0.905707 0.404315
0.662819 0.752779 0.642365
0.370284 0.780302 0.487946
0.637129 0.844309 0.494233
0.603593 0.851560 0.475833
0.661804 0.775663 0.507684
0.630459 0.942897 0.622097
0.518098 0.792285 0.356490
0.539511 0.857336 0.391899
0.598015 0.887970 0.539551
0.360637 0.840031 0.518978
0.553464 0.872700 0.427823
0.532766 0.806669 0.527342
0.406938 0.794869 0.470239
0.614172 0.990485 0.474290
0.385904 0.925580 0.608014
0.646038 0.765104 0.664584
0.533914 0.935033 0.573311
0.461860 0.866262 0.583767
0.553525 0.935851 0.578998
0.609636 0.946661 0.414218
0.544919 0.677592 0.535776
0.575947 0.974416 0.582083
0.598956 0.784681 0.484381
0.347164 0.847455 0.596867
0.374781 0.714440 0.536498
0.348005 0.682579 0.598263
0.399401 0.819517 0.630631
0.444597 0.881683 0.474063
0.664803 0.742854 0.415722
0.537677 0.903255 0.409978
0.334559 0.802642 0.393236
0.426007 0.960176 0.400935
0.554531 0.776046 0.545833
0.389984 0.833566 0.610473
0.475326 0.787446 0.631364
0.362907 0.705946 0.356718
0.631573 0.765269 0.646289
0.562091 0.865974 0.567121
0.597347 0.774758 0.556998
0.450145 0.756270 0.381893
0.336542 0.957878 0.440595
0.484151 0.822094 0.576178
0.656966 0.862245 0.577912
0.624776 0.804116 0.542336
0.342888 0.682729 0.432510
0.470975 0.701699 0.616969
0.465917 0.924737 0.530546
0.971720 0.054349 0.650940
0.722389 0.182806 0.530620
0.737964 0.043342 0.469108
0.883766 0.131439 0.374064
0.678850 0.007874 0.444667
0.973681 0.228123 0.404860
0.668881 0.178611 0.499708
0.696486 0.026850 0.506416
0.868583 0.252211 0.404346
0.848803 0.030028 0.612859
0.921302 0.059162 0.486913
0.700008 0.168751 0.452546
0.866756 0.175448 0.352532
0.782082 0.063516 0.380600
0.762762 0.239565 0.335801
0.757826 0.098841 0.468284
0.703177 0.117355 0.533689
0.958014 0.054414 0.503625
0.866211 0.229088 0.510010
0.689688 0.017837 0.461431
0.939270 0.319466 0.364153
0.817569 0.202429 0.580486
0.686093 0.001610 0.601254
0.928482 0.327864 0.564111
0.844936 0.101834 0.527514
0.743321 0.087986 0.408723
0.695871 0.200540 0.354788
0.910415 0.058770 0.485304
0.885370 0.154935 0.334841
0.933441 0.008684 0.615385
0.681525 0.246592 0.501210
0.741758 0.075805 0.451549
0.807198 0.118516 0.431015
0.781081 0.315905 0.347538
0.924754 0.314530 0.410160
0.936104 0.001340 0.613942
0.801358 0.290425 0.338054
0.843018 0.263737 0.357561
0.931924 0.218182 0.630377
0.745906 0.245432 0.544843
0.974464 0.126465 0.551110
0.825828 0.262386 0.652394
0.929147 0.294918 0.340926
0.822429 0.331309 0.529017
0.857785 0.149689 0.471018
0.737397 0.257690 0.615305
0.909018 0.105923 0.541729
0.973557 0.050525 0.488806
0.996894 0.117759 0.489473
0.955877 0.266141 0.430959
0.790060 0.133900 0.452900
0.764817 0.258553 0.437461
0.813015 0.271802 0.392169
0.814344 0.279664 0.603069
0.857824 0.193937 0.426379
0.973057 0.005386 0.485483
0.987197 0.283800 0.388391
0.761262 0.184334 0.424964
0.854127 0.206502 0.488816
0.766589 0.016117 0.536830
0.972311 0.269028 0.641202
0.965142 0.293011 0.404108
0.937693 0.021585 0.433154
0.872696 0.005509 0.482322
0.683701 0.157160 0.481078
0.896645 0.027277 0.386577
0.845623 0.099566 0.664731
0.908377 0.139863 0.652366
0.765902 0.074021 0.454336
0.854486 0.266316 0.605199
0.772185 0.247875 0.477135
0.830701 0.011047 0.344134
0.854921 0.043302 0.484990
0.834378 0.239306 0.568559
0.898373 0.123816 0.549869
0.670221 0.047941 0.413966
0.982814 0.173175 0.418022
0.784194 0.113531 0.531650
0.833883 0.232030 0.513277
0.714573 0.204414 0.499624
0.865685 0.216038 0.580108
0.839796 0.179058 0.342608
0.911959 0.322633 0.501231
0.875444 0.095337 0.373248
0.762808 0.113861 0.471775
0.936152 0.290035 0.552997
0.666991 0.315566 0.399285
0.734699 0.015578 0.485620
0.991250 0.273031 0.410327
0.795628 0.124389 0.603081
0.940842 0.306187 0.645623
0.749189 0.107024 0.467534
0.968985 0.022323 0.343795
0.985404 0.281868 0.342727
0.867459 0.279153 0.391073
0.952779 0.264335 0.469741
0.762291 0.004299 0.363565
0.885311 0.173830 0.445671
0.855969 0.082642 0.623045
0.877495 0.148810 0.648590
0.735154 0.235842 0.543852
0.735620 0.008695 0.543579
0.673721 0.035120 0.403293
0.898750 0.314354 0.575070
0.942038 0.153520 0.518008
0.717432 0.227223 0.411288
0.848005 0.196450 0.475822
0.840776 0.142269 0.665362
0.775205 0.234782 0.602984
0.771750 0.013284 0.557576
0.702587 0.174335 0.516253
0.709819 0.077285 0.576190
0.783207 0.269684 0.532226
0.877805 0.274364 0.530203
0.926013 0.138368 0.392479
0.733012 0.328233 0.338689
0.939752 0.101080 0.518943
0.793670 0.171555 0.358820
0.759946 0.029494 0.528209
0.895109 0.300640 0.592485
0.719931 0.221820 0.641915
0.925107 0.270072 0.630759
0.915699 0.131831 0.372691
0.751032 0.169210 0.525981
0.680540 0.060818 0.476869
0.879712 0.085225 0.401861
0.958896 0.023828 0.558251
0.980656 0.314976 0.401359
0.791376 0.111879 0.641627
0.777960 0.081123 0.609620
0.975571 0.080176 0.407658
0.698809 0.097654 0.588515
0.904173 0.063377 0.385364
0.703437 0.126411 0.642963
0.997540 0.035716 0.419112
0.884214 0.054122 0.499682
0.886857 0.151618 0.525818
0.762864 0.103465 0.368024
0.942927 0.116029 0.370196
0.783201 0.130035 0.594667
0.779180 0.056301 0.351959
0.896927 0.199325 0.419868
0.961543 0.365563 0.645433
0.926429 0.579928 0.450508
0.747150 0.460662 0.663871
0.799086 0.381470 0.407352
0.942100 0.421790 0.585855
0.681056 0.450557 0.436884
0.803491 0.420589 0.405576
0.690986 0.537717 0.381004
0.748024 0.522253 0.343327
0.997563 0.541935 0.408881
0.820588 0.538332 0.597541
0.824864 0.649014 0.483509
0.701556 0.559250 0.398094
0.807092 0.444002 0.556761
0.890685 0.354155 0.573529
0.707674 0.629197 0.411782
0.827869 0.410089 0.352289
0.864080 0.395311 0.482666
0.951365 0.452719 0.584656
0.902934 0.505142 0.396799
0.920639 0.525099 0.559978
0.909863 0.605851 0.333437
0.963137 0.374930 0.596075
0.929920 0.385322 0.559461
0.786086 0.372600 0.598391
0.882814 0.377654 0.575915
0.672833 0.523487 0.536489
0.763947 0.557327 0.341910
0.839705 0.375003 0.354529
0.670007 0.428244 0.447336
0.796757 0.643200 0.450405
0.777530 0.583027 0.519378
0.759626 0.433293 0.640089
0.679886 0.448746 0.529098
0.953728 0.503362 0.340517
0.922055 0.542298 0.629081
0.855701 0.597357 0.554288
0.916550 0.339286 0.587403
0.696279 0.371186 0.600132
0.735420 0.509972 0.370001
0.921468 0.585638 0.543192
0.835502 0.384994 0.488917
0.917441 0.537866 0.425057
0.670128 0.478849 0.383677
0.688221 0.607421 0.394890
0.673830 0.370179 0.647284
0.866794 0.595459 0.526547
0.913461 0.470719 0.579518
0.742970 0.477374 0.497091
0.684451 0.487493 0.426621
0.853580 0.650579 0.522481
0.705027 0.577734 0.335775
0.775542 0.344320 0.503569
0.771961 0.644615 0.359712
0.761085 0.392033 0.510282
0.997387 0.653437 0.485525
0.987504 0.426136 0.517190
0.931892 0.373571 0.474488
0.866811 0.543833 0.352034
0.668975 0.373611 0.574792
0.788947 0.571370 0.341065
0.678940 0.564169 0.613878
0.838538 0.619135 0.578616
0.828230 0.441151 0.563245
0.934083 0.383214 0.494915
0.676913 0.526654 0.658118
0.769046 0.438716 0.394286
0.877677 0.365439 0.478051
0.869227 0.598413 0.584026
0.934887 0.469758 0.478509
0.870326 0.361700 0.593504
0.717270 0.590938 0.558364
0.979621 0.489619 0.437064
0.806968 0.633270 0.499688
0.830671 0.591266 0.569937
0.892592 0.582855 0.473862
0.938063 0.573573 0.509056
0.982728 0.336156 0.662724
0.965895 0.494574 0.629468
0.763332 0.586767 0.378290
0.952505 0.439674 0.398382
0.702652 0.560319 0.583107
0.718562 0.631892 0.580017
0.984552 0.394221 0.451914
0.718136 0.633853 0.468231
0.827388 0.429233 0.452981
0.713925 0.416620 0.566225
0.870110 0.425475 0.574079
0.682186 0.452605 0.514735
0.811167 0.353985 0.624578
0.700535 0.596066 0.385452
0.947929 0.414317 0.378947
0.695078 0.414542 0.386101
0.812037 0.465596 0.395607
0.725205 0.403673 0.581098
0.882722 0.406740 0.525022
0.910161 0.468724 0.509804
0.779784 0.503926 0.446059
0.728908 0.413138 0.520143
0.898246 0.630168 0.437529
0.856748 0.626253 0.344519
0.990776 0.448773 0.339775
0.837503 0.457653 0.468645
0.744429 0.548557 0.372569
0.693761 0.546694 0.426120
0.789422 0.416240 0.517085
0.977926 0.438296 0.372185
0.730039 0.527085 0.665177
0.676171 0.343664 0.463497
0.674962 0.654026 0.659246
0.872104 0.441880 0.656384
0.829096 0.486639 0.526269
0.788304 0.511212 0.609528
0.912739 0.624746 0.417130
0.965043 0.625319 0.490192
0.797343 0.612374 0.590926
0.696506 0.608656 0.512417
0.959302 0.592128 0.522889
0.726792 0.599722 0.471497
0.768263 0.395500 0.592071
0.882141 0.412573 0.640800
0.771901 0.622868 0.382059
0.696764 0.642029 0.518022
0.940779 0.403037 0.567986
0.866144 0.565908 0.650179
0.690311 0.357069 0.389224
0.976794 0.500070 0.511767
0.807854 0.461262 0.600891
0.997256 0.353638 0.597402
0.961765 0.598339 0.359184
0.714066 0.531477 0.548857
0.879456 0.634352 0.543208
0.920672 0.345596 0.405864
0.850099 0.721372 0.598274
0.683254 0.832481 0.444379
0.927121 0.745200 0.617813
0.998181 0.768892 0.515857
0.947675 0.974378 0.588426
0.757756 0.791824 0.506814
0.928384 0.954997 0.557850
0.808377 0.786501 0.415485
0.871645 0.730019 0.365142
0.772732 0.678744 0.395122
0.811116 0.705401 0.498191
0.934314 0.848521 0.387372
0.991072 0.768941 0.463017
0.884233 0.932542 0.483612
0.740328 0.999212 0.555650
0.724830 0.879940 0.565389
0.825426 0.900121 0.451299
0.838197 0.875677 0.505802
0.735067 0.875601 0.560059
0.731466 0.704604 0.515403
0.942982 0.835075 0.640072
0.695229 0.888342 0.468658
0.899468 0.952345 0.337604
0.968978 0.965139 0.431303
0.937874 0.793934 0.429802
0.793380 0.746416 0.431720
0.999298 0.932052 0.640080
0.958805 0.672921 0.612721
0.705550 0.764261 0.629571
0.842006 0.876204 0.542399
0.995997 0.993082 0.341690
0.857529 0.964972 0.377276
0.908501 0.759506 0.430301
0.761933 0.992881 0.578986
0.880796 0.995984 0.459636
0.860784 0.801487 0.401200
0.929331 0.879680 0.558590
0.900920 0.802922 0.399573
0.672410 0.993311 0.349216
0.876998 0.679639 0.396672
0.684848 0.693682 0.561292
0.911921 0.749920 0.401470
0.877832 0.688605 0.511482
0.996520 0.840909 0.612559
0.851445 0.846455 0.413443
0.753216 0.810416 0.368647
0.999597 0.881916 0.582498
0.955159 0.932259 0.424659
0.751750 0.795101 0.365178
0.683475 0.770189 0.545587
0.891131 0.985879 0.658024
0.951711 0.966675 0.662122
0.744852 0.828907 0.539276
0.914153 0.914965 0.585842
0.862258 0.737016 0.556975
0.965759 0.774391 0.428738
0.809176 0.892340 0.536118
0.715181 0.858031 0.363303
0.944645 0.705117 0.603673
0.969476 0.716497 0.523732
0.801064 0.668943 0.572880
0.790183 0.762257 0.620288
0.997958 0.860344 0.528021
0.725780 0.747763 0.598069
0.797700 0.842781 0.359478
0.718976 0.785132 0.367024
0.670548 0.797051 0.612406
0.741130 0.716580 0.339550
0.876482 0.699770 0.553230
0.800979 0.922995 0.501569
0.885430 0.742276 0.570672
0.710783 0.682152 0.419888
0.868061 0.695740 0.636009
0.925913 0.868166 0.409689
0.681334 0.874012 0.572859
0.950361 0.877700 0.434976
0.741870 0.938311 0.601361
0.914596 0.957470 0.491452
0.983323 0.789225 0.422754
0.986281 0.726331 0.519989
0.710246 0.826813 0.505058
0.937624 0.854791 0.439209
0.861554 0.754860 0.412900
0.675376 0.714488 0.347214
0.970117 0.743974 0.442991
0.943234 0.986348 0.490903
0.915275 0.898424 0.640901
0.944776 0.861990 0.447718
0.969686 0.827637 0.428735
0.961970 0.942479 0.393620
0.695271 0.899973 0.579450
0.754634 0.896930 0.636772
0.899246 0.912251 0.446420
0.968518 0.957753 0.379204
0.695737 0.698894 0.633591
0.873865 0.683949 0.406954
0.728501 0.918145 0.471475
0.797341 0.773206 0.444272
0.982282 0.747085 0.364860
0.976588 0.797550 0.534055
0.846987 0.900997 0.609443
0.671893 0.885703 0.407663
0.822145 0.809110 0.598477
0.783583 0.689682 0.384094
0.741841 0.963916 0.410575
0.912380 0.864977 0.351787
0.712627 0.667883 0.519009
0.827737 0.892008 0.512629
0.826592 0.792101 0.450943
0.692864 0.940712 0.584541
0.802248 0.956942 0.466291
0.995498 0.998718 0.561014
0.688444 0.796624 0.606852
0.971250 0.859699 0.458114
0.950282 0.803473 0.462579
0.679532 0.818417 0.357505
0.945073 0.931734 0.402908
0.730249 0.749611 0.415184
0.740259 0.811154 0.457219
0.698997 0.728314 0.615540
0.903357 0.676851 0.346719
0.753908 0.980854 0.343973
0.955682 0.811231 0.444222
0.933486 0.695201 0.619376
0.993919 0.750131 0.490940
0.905423 0.765471 0.493252
0.915761 0.745355 0.430653
0.702578 0.708109 0.478066
0.703102 0.719572 0.504310
0.854143 0.847632 0.608949
0.984081 0.844515 0.531678
0.758222 0.889932 0.543494
0.908825 0.883316 0.538260
0.693864 0.731575 0.383684
0.822656 0.995232 0.354637
0.897867 0.956684 0.563675
0.922290 0.728785 0.552131
0.768024 0.720563 0.600401
0.972655 0.747660 0.661686
0.741281 0.850947 0.389022
0.738461 0.808232 0.340789
0.853058 0.912067 0.542294
0.924499 0.994944 0.465364
0.888277 0.938955 0.485777
0.975527 0.986128 0.520739
0.787374 0.958996 0.460840
0.711972 0.814156 0.589580
0.952681 0.682992 0.483720
0.909826 0.828849 0.448715
0.705267 0.978436 0.609764
0.129700 0.203591 0.751174
0.034311 0.298184 0.944827
0.132174 0.061441 0.753229
0.147917 0.295172 0.806743
0.085548 0.311205 0.901000
0.136438 0.278721 0.739180
0.016275 0.096084 0.731999
0.101967 0.189951 0.832470
0.286331 0.242097 0.709771
0.294811 0.023033 0.760848
0.208123 0.278941 0.789519
0.311241 0.265304 0.894031
0.010343 0.051573 0.821163
0.274756 0.157185 0.763303
0.099134 0.139003 0.855663
0.275168 0.034862 0.779870
0.000312 0.043259 0.829251
0.261216 0.255285 0.969557
0.018187 0.274629 0.799705
0.235360 0.225074 0.715436
0.333054 0.221154 0.960230
0.323937 0.166317 0.686217
0.015616 0.288919 0.714687
0.235999 0.109124 0.698195
0.136815 0.149607 0.678518
0.326444 0.226631 0.740328
0.207583 0.280007 0.695525
0.149149 0.140061 0.730317
0.327360 0.306555 0.942286
0.213569 0.274836 0.799525
0.003722 0.002796 0.912642
0.077580 0.201847 0.961908
0.312405 0.145463 0.754065
0.220286 0.127171 0.820104
0.041099 0.098676 0.845362
0.019121 0.226867 0.839143
0.013936 0.280000 0.820786
0.319744 0.050676 0.871540
0.224130 0.046543 0.729114
0.276478 0.073287 0.854534
0.260073 0.214486 0.867730
0.214647 0.306380 0.846285
0.214900 0.287065 0.963510
0.231642 0.240461 0.997299
0.192468 0.141838 0.733989
0.104410 0.193871 0.759316
0.276803 0.311915 0.826226
0.091695 0.017245 0.851825
0.117445 0.078833 0.815080
0.270828 0.074199 0.756635
0.029184 0.020628 0.684007
0.191538 0.070817 0.999543
0.291239 0.062683 0.797229
0.332739 0.252192 0.899826
0.252290 0.244980 0.882940
0.250943 0.264417 0.810701
0.132183 0.166968 0.832677
0.325765 0.136442 0.955044
0.148612 0.020285 0.782396
0.110425 0.063191 0.833250
0.279577 0.209697 0.878964
0.000646 0.068833 0.790694
0.267680 0.285727 0.941770
0.097851 0.330735 0.889241
0.132670 0.277652 0.674463
0.103856 0.037694 0.866659
0.279200 0.040822 0.832517
0.259038 0.082231 0.693775
0.045147 0.170905 0.767564
0.145149 0.313928 0.767865
0.182070 0.313606 0.802443
0.169182 0.000288 0.819818
0.212783 0.275411 0.678387
0.300078 0.204688 0.736004
0.171516 0.102260 0.672486
0.139628 0.203034 0.807626
0.308849 0.009359 0.754625
0.118231 0.168169 0.712812
0.199563 0.235742 0.769259
0.227693 0.298934 0.939860
0.067824 0.133783 0.727500
0.060169 0.240579 0.955362
0.304757 0.057650 0.773838
0.077182 0.101088 0.835666
0.278652 0.123981 0.920203
0.192295 0.110886 0.973687
0.192805 0.062061 0.721699
0.257966 0.221653 0.815821
0.196593 0.021995 0.958377
0.291375 0.282056 0.966190
0.001705 0.321320 0.879210
0.102997 0.066926 0.835158
0.096133 0.162863 0.914730
0.064586 0.286894 0.911010
0.162062 0.183586 0.739349
0.206709 0.193338 0.707776
0.327215 0.132879 0.803482
0.086744 0.300917 0.745652
0.323980 0.158120 0.978857
0.088068 0.204333 0.982559
0.224864 0.280960 0.819624
0.210731 0.095103 0.911418
0.020951 0.161041 0.758024
0.168957 0.325652 0.729825
0.041814 0.013290 0.801319
0.323652 0.258818 0.677505
0.170646 0.106472 0.750211
0.227355 0.112441 0.883529
0.305730 0.304042 0.682145
0.043367 0.241973 0.812992
0.006566 0.190976 0.772916
0.020382 0.172809 0.809727
0.297640 0.120520 0.925290
0.026758 0.253246 0.791109
0.075824 0.021412 0.953437
0.045651 0.148665 0.919286
0.213693 0.271106 0.853717
0.178948 0.180881 0.924843
0.158977 0.071291 0.968263
0.104819 0.052322 0.753729
0.311221 0.045638 0.917576
0.188952 0.265234 0.934060
0.099385 0.120729 0.707691
0.125191 0.166500 0.712593
0.229693 0.100508 0.817497
0.213946 0.275703 0.733534
0.101159 0.168109 0.864640
0.276422 0.228727 0.771720
0.153891 0.066591 0.988843
0.269396 0.229318 0.850615
0.115254 0.098006 0.686809
0.015013 0.103356 0.941195
0.024548 0.324013 0.803204
0.126065 0.147959 0.873745
0.206016 0.119938 0.855720
0.210947 0.041940 0.885858
0.094421 0.047647 0.696047
0.091448 0.283648 0.806040
0.261942 0.071861 0.690465
0.327393 0.615989 0.972686
0.272162 0.584392 0.686696
0.108571 0.535036 0.798405
0.112099 0.501356 0.827309
0.088747 0.391585 0.800457
0.149269 0.579509 0.945578
0.167744 0.649707 0.890767
0.107414 0.607913 0.896322
0.170567 0.622059 0.991466
0.238336 0.556575 0.847612
0.148929 0.356109 0.889341
0.328866 0.547982 0.956017
0.003736 0.630681 0.761985
